ply
format ascii 1.0
element vertex 766
comment vertices
property float x
property float y
property float z
end_header
1.32146739959716797 2.55412030220031738 0.60844951868057251
-0.0217867977917194366 1.27145016193389893 -0.401964902877807617
1.60708236694335938 2.29392766952514648 -0.914917647838592529
-0.679671108722686768 1.39934659004211426 -0.555972635746002197
0.467052549123764038 1.71377170085906982 -0.974269390106201172
-0.153833255171775818 1.08868825435638428 -0.618256092071533203
-0.618377625942230225 1.43826174736022949 0.364202409982681274
0.616679847240447998 2.31426620483398438 0.958808422088623047
1.11706757545471191 2.58450961112976074 1.10535681247711182
-0.0212172418832778931 2.15405631065368652 -0.187953561544418335
-0.123937681317329407 1.62087118625640869 0.689525306224822998
-0.402692228555679321 1.00800025463104248 -0.345752596855163574
1.62200665473937988 2.39730119705200195 0.935312628746032715
1.42088782787322998 2.78976750373840332 -0.25241515040397644
0.920418918132781982 2.10677552223205566 -1.09906017780303955
1.12755978107452393 2.72365403175354004 0.181354239583015442
0.15417422354221344 1.70526134967803955 -0.342241287231445312
1.38479208946228027 2.52254414558410645 -0.00453842571005225182
-0.0191012434661388397 1.38712835311889648 -0.147394195199012756
0.95000225305557251 2.14953303337097168 -0.539750516414642334
-0.281195461750030518 1.4922562837600708 0.342788100242614746
-0.580453217029571533 1.50218045711517334 -0.317263185977935791
-0.556161046028137207 1.65617763996124268 0.111760854721069336
0.281784951686859131 1.99784159660339355 0.847228944301605225
-0.0445112474262714386 1.67658519744873047 0.343352168798446655
-0.909762740135192871 1.32062137126922607 -0.077077135443687439
1.57689404487609863 2.37597560882568359 0.327114224433898926
0.829119086265563965 2.37998509407043457 -0.235592484474182129
-0.0804124251008033752 1.82347476482391357 -0.189943507313728333
-0.36367371678352356 1.83118236064910889 0.125441044569015503
0.2201966792345047 1.91097843647003174 0.550921797752380371
-0.560561597347259521 1.23878657817840576 -0.393094420433044434
0.250405192375183105 1.43150615692138672 -0.594368219375610352
-0.708574414253234863 1.43219828605651855 -0.804425477981567383
1.12491357326507568 2.28814435005187988 -1.02221190929412842
0.726726830005645752 2.80607128143310547 -0.169638887047767639
0.178435325622558594 1.97319793701171875 -0.3694649338722229
1.41030240058898926 2.51931047439575195 0.838718593120574951
1.00951147079467773 2.89215850830078125 -0.00162222504150122404
-0.312940269708633423 1.77595639228820801 -0.32958531379699707
0.29626128077507019 1.98785459995269775 0.131900742650032043
0.37256932258605957 1.62019717693328857 -0.436048924922943115
0.299069315195083618 2.40000009536743164 0.123680047690868378
-0.22109086811542511 1.27470016479492188 0.450926393270492554
0.620475411415100098 1.84955286979675293 -0.549231112003326416
0.142221555113792419 1.59383261203765869 0.462655425071716309
0.653004229068756104 2.29635930061340332 0.621866405010223389
-0.744499742984771729 1.47900521755218506 0.170311123132705688
-0.00954458117485046387 1.91046690940856934 0.146437704563140869
0.592618346214294434 2.70695018768310547 0.000663429440464824438
-0.899309515953063965 1.3528134822845459 0.50958937406539917
0.683190882205963135 2.3264007568359375 0.169677883386611938
1.50022399425506592 2.36905884742736816 -1.12131941318511963
0.627674996852874756 1.83923959732055664 -0.856264472007751465
0.963391482830047607 2.61661458015441895 0.673716843128204346
1.1223597526550293 2.29159641265869141 -0.580537259578704834
1.05639302730560303 2.50402140617370605 -0.182400435209274292
0.0656432509422302246 1.11116874217987061 -0.535134017467498779
0.431638360023498535 2.65312337875366211 -0.370879977941513062
1.44766783714294434 2.40256595611572266 -0.792268335819244385
0.73668980598449707 2.52099061012268066 -0.446162700653076172
1.19966340065002441 2.39376425743103027 -0.825209140777587891
0.873657047748565674 2.05213117599487305 -0.883557736873626709
1.13871133327484131 2.71729040145874023 0.589046239852905273
-0.205104991793632507 1.19522547721862793 -0.309422940015792847
0.549049973487854004 2.19727659225463867 0.340705513954162598
0.942346394062042236 2.62008547782897949 0.889762282371520996
1.42087042331695557 2.41796398162841797 -0.464872837066650391
1.28323304653167725 2.51558685302734375 -0.323453992605209351
-0.285013735294342041 1.90049302577972412 -0.153341501951217651
-0.570203542709350586 1.29602718353271484 -0.710275769233703613
1.19847071170806885 2.67295479774475098 0.3765106201171875
0.0232268292456865311 1.73849105834960938 0.584603011608123779
0.476143449544906616 2.57184028625488281 -0.110473848879337311
0.180415958166122437 2.27661037445068359 -0.143722802400588989
-0.538708925247192383 1.29590117931365967 0.549310266971588135
1.04825663566589355 2.26113009452819824 -0.173875719308853149
0.85223698616027832 2.49978733062744141 0.510884702205657959
-0.226180672645568848 0.980203092098236084 -0.454759299755096436
1.43572759628295898 2.45926499366760254 0.462648332118988037
0.460055112838745117 2.17958545684814453 0.931208252906799316
1.23201179504394531 2.41795468330383301 -1.14258658885955811
0.0527245849370956421 1.50512170791625977 -0.339242368936538696
-0.3685646653175354 1.47185051441192627 -0.266815930604934692
0.345054268836975098 2.30988526344299316 -0.309467464685440063
0.950056970119476318 2.23471450805664062 -0.350234359502792358
0.171192511916160583 1.29228603839874268 -0.462715834379196167
-0.772058665752410889 1.42091941833496094 -0.244084611535072327
1.28288209438323975 2.62465667724609375 0.955857992172241211
-0.880132973194122314 1.35483956336975098 -0.544884860515594482
-0.0392647981643676758 2.12314867973327637 0.0595334768295288086
-0.131963565945625305 1.74328434467315674 -0.39844512939453125
0.152831494808197021 2.07757782936096191 -0.138963803648948669
1.60035145282745361 2.33440566062927246 -0.360702812671661377
-0.580199360847473145 1.62554025650024414 -0.163071990013122559
0.341154307126998901 2.01906609535217285 0.662346363067626953
-0.594266414642333984 1.62124931812286377 0.302522420883178711
1.46737968921661377 2.45297932624816895 0.15595090389251709
-0.439289361238479614 1.36427676677703857 0.347062438726425171
0.960693895816802979 2.6069638729095459 0.247317135334014893
0.51764380931854248 2.1742706298828125 0.52967756986618042
0.752250134944915771 2.67929530143737793 0.120426401495933533
0.209981948137283325 2.37315750122070312 -0.512807488441467285
-0.321143925189971924 1.87988662719726562 0.306811630725860596
1.59666347503662109 2.34565997123718262 -0.130165934562683105
1.41292297840118408 2.35156917572021484 -1.33700835704803467
0.944639384746551514 2.45249032974243164 -0.379061073064804077
1.12356293201446533 2.74574112892150879 1.01123619079589844
0.764165759086608887 1.96610796451568604 -0.523474991321563721
0.832967281341552734 2.47729349136352539 0.313876807689666748
-0.142754673957824707 2.01906394958496094 -0.221521377563476562
1.26945018768310547 2.62325334548950195 0.119526274502277374
0.744073331356048584 2.41921687126159668 0.879348278045654297
1.54492425918579102 2.41464042663574219 0.771957933902740479
-0.0081732356920838356 1.88656949996948242 0.337364673614501953
-0.172094359993934631 2.01244401931762695 0.200311794877052307
-0.860282659530639648 1.35616660118103027 0.101625062525272369
1.06265079975128174 2.80972647666931152 -0.177263557910919189
-0.370041102170944214 0.99356842041015625 -0.560808658599853516
1.27639567852020264 2.55692148208618164 -0.148697048425674438
-0.7643471360206604 1.46755647659301758 0.463610351085662842
-0.115230940282344818 1.1248164176940918 -0.447388917207717896
1.5803074836730957 2.28853964805603027 -0.733630597591400146
0.328450322151184082 1.56624746322631836 -0.678410112857818604
-0.147276625037193298 1.38598525524139404 -0.319191247224807739
0.433681517839431763 2.49262332916259766 -0.263022333383560181
-0.45446053147315979 1.54403972625732422 0.375538676977157593
1.26226556301116943 2.61435294151306152 0.762110233306884766
1.2350468635559082 2.41453194618225098 -0.472349196672439575
0.936340510845184326 2.10255026817321777 -0.70767056941986084
0.566357135772705078 2.55431604385375977 -0.421553641557693481
1.00142395496368408 2.18317556381225586 -0.96194690465927124
0.837733566761016846 2.91872072219848633 -0.0665484517812728882
-0.768745064735412598 1.4448474645614624 -0.415614992380142212
0.415976434946060181 1.64662528038024902 -0.824391186237335205
0.290016412734985352 1.97291266918182373 0.321778416633605957
0.294068992137908936 2.10165572166442871 -0.345778942108154297
0.58992922306060791 2.25677633285522461 0.800498545169830322
1.19525778293609619 2.38346362113952637 -1.32033812999725342
0.683563828468322754 1.87490487098693848 -0.336261004209518433
0.499299913644790649 1.72523295879364014 -0.495066642761230469
-0.195356771349906921 1.53803372383117676 0.563151657581329346
0.405563026666641235 2.0716094970703125 0.256574124097824097
0.791245818138122559 2.66327977180480957 -0.237461462616920471
0.750770390033721924 1.94572746753692627 -0.925631046295166016
0.589778900146484375 2.43627381324768066 -0.193245455622673035
0.974722445011138916 2.64776253700256348 1.05237209796905518
-0.380360037088394165 1.17035889625549316 -0.324542194604873657
1.45381522178649902 2.45885419845581055 0.643231749534606934
0.19141387939453125 1.3824915885925293 -0.762687623500823975
0.139373317360877991 1.83968997001647949 0.133219853043556213
1.44970500469207764 2.40520429611206055 -0.629625618457794189
0.213834643363952637 1.91714513301849365 0.723443329334259033
0.106996074318885803 1.32407176494598389 -0.31670147180557251
-0.486398249864578247 1.36595845222473145 -0.299279540777206421
-0.79808419942855835 1.41624879837036133 -0.670918405055999756
0.582149147987365723 1.81309604644775391 -1.0276648998260498
0.379553318023681641 2.48214530944824219 0.0109691498801112175
-0.142271727323532104 1.55794525146484375 0.39126315712928772
-0.555252969264984131 1.25431954860687256 -0.553013384342193604
-0.631414592266082764 1.43185782432556152 0.545168936252593994
-0.0594168901443481445 1.53195071220397949 -0.229809954762458801
0.235516920685768127 2.35253787040710449 -0.0154185881838202477
1.47680568695068359 2.38271880149841309 -0.958484530448913574
1.31294357776641846 2.55868148803710938 0.449392557144165039
1.3788905143737793 2.45354604721069336 -1.18935811519622803
-0.75116342306137085 1.57601344585418701 -0.265335440635681152
0.0623678900301456451 2.19963693618774414 -0.0466266795992851257
0.822013974189758301 2.52264833450317383 -0.302222162485122681
1.02987349033355713 2.2107393741607666 -1.14051210880279541
0.595859825611114502 2.69455456733703613 -0.157158419489860535
-0.0383917354047298431 1.18344318866729736 -0.663418292999267578
-0.472611844539642334 1.12908554077148438 -0.460164308547973633
1.12768590450286865 2.50939083099365234 -0.326500236988067627
1.49425256252288818 2.47915005683898926 0.968368709087371826
0.17958243191242218 2.10926938056945801 0.136845856904983521
0.63620525598526001 1.83832943439483643 -0.70388108491897583
-0.793862640857696533 1.44268262386322021 0.31604340672492981
1.26820933818817139 2.57243776321411133 1.10386180877685547
-0.0979269668459892273 2.06975722312927246 -0.0780944079160690308
1.46818268299102783 2.44327116012573242 -0.102007612586021423
-0.456234782934188843 1.74460005760192871 0.0417130365967750549
-0.216442525386810303 1.88428032398223877 -0.2889842689037323
-0.469434201717376709 1.73351776599884033 0.210026994347572327
-0.305564075708389282 1.88530397415161133 -0.00574169307947158813
-0.249886274337768555 1.05261480808258057 -0.316996216773986816
1.11784839630126953 2.78348016738891602 0.0446642301976680756
0.5235443115234375 1.74215304851531982 -0.779645681381225586
0.813589394092559814 2.01400566101074219 -1.05425369739532471
-0.654625594615936279 1.35267972946166992 -0.379006356000900269
-0.0430685803294181824 1.57097113132476807 0.522955656051635742
0.0575106777250766754 1.25851857662200928 -0.551269114017486572
-0.0236940439790487289 1.71938037872314453 0.733864665031433105
1.22895312309265137 2.41805410385131836 -0.990014731884002686
-0.660423338413238525 1.55515599250793457 0.0766865015029907227
0.0858804062008857727 1.71656954288482666 0.398103505373001099
0.755638420581817627 2.40330100059509277 0.579933404922485352
-0.164474442601203918 1.406036376953125 0.397084504365921021
0.294828444719314575 1.47753310203552246 -0.463364183902740479
0.588642656803131104 2.66934561729431152 0.140975654125213623
1.05144667625427246 2.2661750316619873 -0.455727726221084595
0.613340139389038086 2.2555844783782959 0.457779556512832642
0.68971705436706543 2.8106837272644043 -0.0262483749538660049
0.0909572094678878784 2.31295514106750488 -0.250939816236495972
0.917100012302398682 2.91431212425231934 0.11398845911026001
1.32449734210968018 2.47547531127929688 -0.776694655418395996
-0.807142496109008789 1.40668809413909912 -0.0219140592962503433
-0.475112318992614746 1.47891736030578613 -0.171232998371124268
0.700651466846466064 2.39852309226989746 1.03649473190307617
0.19563603401184082 1.56855249404907227 -0.333254128694534302
-0.546743452548980713 1.66458022594451904 -0.031603839248418808
0.0256849229335784912 1.54157686233520508 0.40307655930519104
-0.2891998291015625 1.35842049121856689 -0.290986031293869019
1.12687540054321289 2.32400298118591309 -1.15768873691558838
0.878005087375640869 2.50536942481994629 0.841848075389862061
0.707497537136077881 2.35387396812438965 0.761716067790985107
0.0682243779301643372 1.77497684955596924 0.234748288989067078
0.396293491125106812 2.09576153755187988 0.823928236961364746
0.150692537426948547 1.84449648857116699 0.430800676345825195
-0.883259117603302002 1.34052693843841553 -0.211322858929634094
-0.26740950345993042 1.93008434772491455 0.12066960334777832
0.862414002418518066 2.04639554023742676 -0.577000260353088379
-0.0148393334820866585 1.39585530757904053 -0.284637242555618286
1.60965824127197266 2.2990875244140625 -1.17576754093170166
1.22795271873474121 2.64523124694824219 0.514221489429473877
1.45330071449279785 2.45904159545898438 0.307697147130966187
0.454392224550247192 1.67401218414306641 -0.328198999166488647
-0.0712574422359466553 1.1718897819519043 -0.315539360046386719
1.22570431232452393 2.65094709396362305 0.245010673999786377
1.59559059143066406 2.36486482620239258 0.193410307168960571
-0.531573176383972168 1.28637993335723877 0.407867729663848877
-0.406876116991043091 1.7211158275604248 -0.249486550688743591
1.55255401134490967 2.39264535903930664 0.471220582723617554
-0.318364113569259644 1.18474912643432617 0.473373234272003174
0.386032253503799438 1.62114989757537842 -0.568863868713378906
1.27142798900604248 2.63220000267028809 -0.013576180674135685
-0.69422537088394165 1.52867865562438965 0.294539332389831543
0.955523133277893066 2.18300032615661621 -1.24765372276306152
0.592490673065185547 2.23268222808837891 0.196579292416572571
-0.408115208148956299 1.32097113132476807 0.549559891223907471
0.891788959503173828 2.09504342079162598 -0.39665144681930542
0.125954464077949524 1.82814335823059082 0.594189763069152832
1.49966585636138916 2.42507529258728027 0.0265392418950796127
0.419692724943161011 2.09072589874267578 0.559604763984680176
-0.662535011768341064 1.39442765712738037 -0.686224818229675293
0.767756879329681396 2.41501784324645996 0.216353923082351685
1.02066147327423096 2.66974520683288574 0.128324627876281738
0.95571821928024292 2.78984427452087402 -0.249533817172050476
1.0639491081237793 2.69884824752807617 0.694457828998565674
-0.319325447082519531 1.35488128662109375 0.395998597145080566
0.937849700450897217 2.50151419639587402 -0.248034819960594177
1.38172745704650879 2.50022077560424805 -0.198389604687690735
0.649355530738830566 2.28867053985595703 0.307719588279724121
1.11122167110443115 2.71939873695373535 0.459264636039733887
0.309803009033203125 1.98375046253204346 0.487903475761413574
0.255058854818344116 2.3701174259185791 -0.231072038412094116
0.875725686550140381 2.53134775161743164 0.633554399013519287
0.345155388116836548 2.30907988548278809 -0.43764069676399231
0.0838872566819190979 1.44139957427978516 -0.200556784868240356
-0.0370512530207633972 1.03795325756072998 -0.499256610870361328
1.11063539981842041 2.66311120986938477 -0.335799962282180786
0.150094479322433472 1.34838783740997314 -0.575244605541229248
0.559152483940124512 2.21341943740844727 0.644325792789459229
1.0387880802154541 2.21186590194702148 -0.667270660400390625
1.52594053745269775 2.40895342826843262 -1.3316500186920166
0.123723782598972321 2.19313430786132812 -0.225642651319503784
0.507402181625366211 2.61008024215698242 0.00595048815011978149
1.07742607593536377 2.69404101371765137 0.340279906988143921
1.57512450218200684 2.3135068416595459 -1.0362858772277832
1.12387871742248535 2.30149722099304199 -0.865231931209564209
0.984522461891174316 2.89449548721313477 -0.127115592360496521
-0.0641222894191741943 1.95695614814758301 0.248771354556083679
0.51301109790802002 2.58358263969421387 -0.228775158524513245
1.37499487400054932 2.5179600715637207 0.719242393970489502
0.814826905727386475 2.89232659339904785 -0.186226502060890198
1.38366997241973877 2.54365777969360352 0.957715868949890137
0.322165787220001221 1.55815565586090088 -0.34084707498550415
0.553383409976959229 1.76797199249267578 -0.614303767681121826
-0.0843659713864326477 1.79183065891265869 0.363878458738327026
0.0613385625183582306 1.18568336963653564 -0.433225303888320923
0.213766947388648987 2.30731391906738281 0.132319733500480652
0.23175327479839325 1.91788530349731445 0.209886491298675537
-0.246466547250747681 1.00899779796600342 -0.572347462177276611
1.02133214473724365 2.66127800941467285 0.552989959716796875
-0.188710868358612061 1.99221813678741455 -0.104743696749210358
1.52832090854644775 2.3490595817565918 -0.46157538890838623
-0.333809763193130493 1.78685927391052246 0.384152740240097046
1.23547005653381348 2.63479518890380859 0.638124227523803711
1.36682403087615967 2.53163909912109375 0.166598141193389893
0.95460134744644165 2.12968921661376953 -0.837687849998474121
1.20594692230224609 2.66126585006713867 1.04194378852844238
-0.351491928100585938 1.82765305042266846 -0.223533347249031067
-0.857233226299285889 1.36521601676940918 0.384854644536972046
0.280532538890838623 1.45656919479370117 -0.725799441337585449
-0.644585847854614258 1.57446873188018799 0.195031672716140747
0.706589102745056152 1.90833604335784912 -0.611648619174957275
-0.670419156551361084 1.54777300357818604 -0.175178170204162598
0.988802731037139893 2.53685855865478516 1.09475815296173096
0.599440455436706543 1.82157421112060547 -0.434998899698257446
1.15443742275238037 2.33503031730651855 -0.686640143394470215
1.01135218143463135 2.65741443634033203 0.80056840181350708
0.908079743385314941 2.54661250114440918 0.374322235584259033
-0.81380540132522583 1.4148794412612915 0.565427303314208984
-0.34240269660949707 1.0176311731338501 -0.447330206632614136
-0.232887685298919678 1.09726560115814209 -0.437831670045852661
-0.82147449254989624 1.39184677600860596 0.207555085420608521
0.336879551410675049 1.58709979057312012 -0.88897329568862915
1.22767770290374756 2.4141695499420166 -0.347282081842422485
-0.539434432983398438 1.35438036918640137 -0.403879672288894653
0.546079754829406738 1.75709152221679688 -0.894292712211608887
0.744212627410888672 2.52150750160217285 -0.210415303707122803
0.661887526512145996 1.87253487110137939 -0.964712440967559814
0.928807497024536133 2.58356904983520508 0.541986286640167236
1.33764338493347168 2.49253630638122559 -0.531158864498138428
0.665129780769348145 2.77747893333435059 0.0838751420378684998
-0.0696882531046867371 1.78808820247650146 -0.309338867664337158
0.6478385329246521 2.65170907974243164 -0.341637641191482544
1.02980220317840576 2.80345344543457031 0.119251154363155365
1.38576018810272217 2.44271397590637207 -0.338275551795959473
1.58357918262481689 2.34750747680664062 -0.246069177985191345
0.145186677575111389 1.40030837059020996 -0.427409857511520386
1.50463330745697021 2.34203267097473145 -1.23412990570068359
0.461498677730560303 2.11675572395324707 0.352145075798034668
-0.0767198652029037476 1.15122604370117188 -0.553517401218414307
0.146250829100608826 2.27601337432861328 -0.0229914877563714981
1.27601015567779541 2.45985960960388184 -0.881908416748046875
1.19272422790527344 2.62697839736938477 -0.186896875500679016
-0.687086820602416992 1.45942795276641846 -0.329973518848419189
1.6326453685760498 2.43708324432373047 1.04313957691192627
1.52534043788909912 2.33475852012634277 -0.843587517738342285
-0.788407564163208008 1.43235099315643311 -0.537593424320220947
-0.236933767795562744 1.964790940284729 0.283656984567642212
1.19289052486419678 2.70570945739746094 0.0884908586740493774
-0.787088453769683838 1.43591952323913574 -0.131414279341697693
-0.254200965166091919 1.52518105506896973 0.660632431507110596
1.40794432163238525 2.44269776344299316 -1.07328164577484131
-0.396064877510070801 1.80270743370056152 0.26804468035697937
1.20933055877685547 2.65111517906188965 0.869832277297973633
0.321966230869293213 2.21085643768310547 -0.363823890686035156
-0.535057246685028076 1.73854959011077881 -0.184872299432754517
-0.630418300628662109 1.58193540573120117 -0.0412955433130264282
-0.838964164257049561 1.37651944160461426 -0.77766042947769165
-0.74403458833694458 1.47524309158325195 0.0430323183536529541
0.387399673461914062 2.0551750659942627 0.135866209864616394
0.807648956775665283 1.98857414722442627 -0.816812455654144287
0.990951418876647949 2.41302752494812012 -0.19850941002368927
0.397841215133666992 2.48107624053955078 0.122662492096424103
-0.435963243246078491 1.26771426200866699 -0.339101850986480713
0.688124358654022217 2.32492184638977051 0.518579781055450439
0.713712632656097412 1.90998697280883789 -0.825496912002563477
0.166661351919174194 1.90248250961303711 0.82451862096786499
1.0743563175201416 2.81665182113647461 -0.0658692717552185059
-0.481463015079498291 1.60102951526641846 -0.21001887321472168
-0.0993888601660728455 2.05664968490600586 0.127435043454170227
0.0419831536710262299 2.16936969757080078 0.137569963932037354
1.20747518539428711 2.39186382293701172 -0.578426003456115723
0.717625439167022705 1.92497813701629639 -0.430502027273178101
1.03082597255706787 2.68610358238220215 0.90690690279006958
0.236077040433883667 1.92433273792266846 0.406497269868850708
1.47968006134033203 2.38310599327087402 -0.367269694805145264
-0.476542651653289795 1.1199716329574585 -0.349038302898406982
-0.159780845046043396 1.10580098628997803 -0.25867035984992981
0.499025970697402954 2.15642547607421875 0.25056794285774231
-0.0638542994856834412 1.66317605972290039 0.580938994884490967
-0.464791297912597656 1.214607834815979 0.508045852184295654
-0.0980029478669166565 1.47935748100280762 -0.352487802505493164
-0.0989709049463272095 1.90367591381072998 -0.263573974370956421
1.40230882167816162 2.44066691398620605 -0.885425567626953125
0.709286510944366455 2.51295042037963867 -0.314760714769363403
0.190043032169342041 2.0992283821105957 -0.240420728921890259
-0.385861098766326904 1.8106844425201416 -0.0151793379336595535
-0.263754934072494507 1.88086366653442383 0.400360524654388428
0.911223113536834717 2.57770490646362305 0.996837735176086426
0.340378314256668091 2.43388152122497559 -0.256307810544967651
-0.583602249622344971 1.36540102958679199 0.46283838152885437
1.30470478534698486 2.36301255226135254 -1.32862961292266846
1.30195403099060059 2.47479534149169922 -1.07197034358978271
0.803108274936676025 2.49240636825561523 0.937300920486450195
0.849203228950500488 2.02830386161804199 -0.710061371326446533
1.31606709957122803 2.57209444046020508 0.852378010749816895
1.53289520740509033 2.3343806266784668 -0.643520891666412354
0.917532265186309814 2.09546828269958496 -0.972678720951080322
0.232493311166763306 1.3758094310760498 -0.492936372756958008
-0.118156418204307556 1.62152457237243652 -0.221199482679367065
0.140743911266326904 1.43598306179046631 -0.321453332901000977
-0.504065752029418945 1.20830452442169189 -0.684089183807373047
-0.0907561928033828735 1.86011528968811035 -0.386025607585906982
-0.845022499561309814 1.36978328227996826 -0.414593249559402466
-0.392467737197875977 1.63099443912506104 0.372184246778488159
-0.2361612468957901 1.44942343235015869 -0.274675756692886353
0.804537475109100342 2.45135378837585449 0.428806811571121216
0.735157430171966553 2.50185179710388184 0.135679543018341064
0.591426968574523926 2.51893949508666992 -0.314767926931381226
0.308930575847625732 1.51690125465393066 -0.570538878440856934
-0.617008984088897705 1.54163241386413574 0.387269854545593262
0.9276466965675354 2.36324739456176758 -0.3247031569480896
0.34070664644241333 1.5786750316619873 -0.783742070198059082
-0.607205748558044434 1.32900214195251465 -0.617326200008392334
-0.35795903205871582 1.83436179161071777 -0.116158612072467804
1.05226635932922363 2.67761778831481934 0.238637298345565796
0.450001269578933716 2.55610179901123047 -0.406432121992111206
0.0227842144668102264 1.86922717094421387 0.237100332975387573
-0.605748772621154785 1.3226466178894043 -0.49200090765953064
0.0425907336175441742 1.79526972770690918 0.333990514278411865
0.406242936849594116 2.50015115737915039 -0.140173643827438354
-0.347248852252960205 1.24980854988098145 0.397508203983306885
-0.126192465424537659 1.62521946430206299 -0.377713173627853394
-0.648944556713104248 1.47092318534851074 0.639602959156036377
1.2659914493560791 2.60478782653808594 0.337298274040222168
1.08528983592987061 2.4379878044128418 -0.256721138954162598
-0.713415622711181641 1.49741613864898682 0.554199874401092529
-0.385213196277618408 1.38341784477233887 -0.216058835387229919
1.50860154628753662 2.45387029647827148 0.869537174701690674
-0.301016569137573242 1.12822973728179932 -0.269592940807342529
-0.929733037948608398 1.31486713886260986 -0.637335717678070068
-0.174676910042762756 1.06900227069854736 -0.517570674419403076
0.655837357044219971 2.32834005355834961 0.846685826778411865
1.39836990833282471 2.45694470405578613 -1.33269143104553223
-0.316988617181777954 1.88719272613525391 0.199352994561195374
0.840633869171142578 2.42316293716430664 -0.327619254589080811
0.759414196014404297 2.4064328670501709 0.318612813949584961
1.05850517749786377 2.61181879043579102 -0.264434814453125
-0.553839504718780518 1.65658903121948242 0.213672041893005371
0.195002287626266479 2.1115257740020752 -0.367018997669219971
1.02012264728546143 2.22189736366271973 -0.553863525390625
0.13844221830368042 1.33701586723327637 -0.676095426082611084
0.551379203796386719 2.2399594783782959 0.936368405818939209
0.0716653615236282349 1.28758704662322998 -0.437774568796157837
0.402945399284362793 1.63540470600128174 -0.715188562870025635
-0.431359380483627319 1.0788959264755249 -0.537877798080444336
0.0269416011869907379 1.25100946426391602 -0.315688997507095337
1.46208047866821289 2.46976947784423828 0.754335105419158936
-0.839725732803344727 1.37634646892547607 -0.309993982315063477
0.406189590692520142 2.08449745178222656 0.706203997135162354
0.898118197917938232 2.95656871795654297 0.00473769800737500191
1.51541876792907715 2.42298698425292969 0.5711517333984375
0.513175666332244873 2.19818830490112305 0.847719430923461914
1.16058719158172607 2.69128680229187012 0.72146075963973999
1.04700183868408203 2.26052355766296387 -0.354813963174819946
1.11975324153900146 2.72804141044616699 -0.188174530863761902
0.430638760328292847 2.39608335494995117 -0.289453446865081787
1.38956999778747559 2.4424896240234375 -0.700408399105072021
0.328045368194580078 2.00086736679077148 0.225882083177566528
0.0671415850520133972 1.78449070453643799 0.677421092987060547
0.840912580490112305 2.03659510612487793 -0.45989990234375
0.920884370803833008 2.58414483070373535 0.797717034816741943
-0.665809452533721924 1.45387232303619385 0.45078083872795105
1.12022650241851807 2.27963089942932129 -0.767928242683410645
0.792284488677978516 1.96702313423156738 -0.619368374347686768
1.3385549783706665 2.56471037864685059 0.0729667842388153076
1.22899413108825684 2.4459223747253418 -1.23810982704162598
0.462626099586486816 2.12466311454772949 0.463212251663208008
0.257188379764556885 1.94977140426635742 0.640058219432830811
1.38207113742828369 2.50600266456604004 0.531977176666259766
-0.131780922412872314 1.34994077682495117 0.472018122673034668
0.883993923664093018 2.5133664608001709 0.219951465725898743
-0.37985578179359436 1.38489401340484619 -0.320162475109100342
-0.0671640560030937195 1.96361148357391357 0.355130970478057861
-0.670677602291107178 1.46658706665039062 -0.233034297823905945
-0.513311803340911865 1.63713765144348145 0.356255263090133667
0.305671989917755127 2.41604518890380859 0.0110720060765743256
1.55863296985626221 2.38640141487121582 -0.041813969612121582
0.0453769713640213013 1.8117375373840332 0.135149016976356506
0.290614008903503418 1.98170983791351318 0.750963866710662842
1.15111649036407471 2.71184635162353516 0.919844746589660645
0.125019535422325134 1.18499946594238281 -0.55930483341217041
-0.911426007747650146 1.31055498123168945 -0.454787284135818481
1.52865803241729736 2.4578399658203125 1.05716466903686523
0.982553184032440186 2.1889951229095459 -0.456848353147506714
1.36052572727203369 2.5352330207824707 -0.104836903512477875
-0.163964375853538513 1.81162822246551514 -0.337171882390975952
1.49427139759063721 2.36211943626403809 -0.554871082305908203
-0.68522876501083374 1.40056157112121582 -0.457754611968994141
1.21665942668914795 2.40479254722595215 -0.711998581886291504
-0.219958409667015076 1.9583362340927124 -0.19570489227771759
1.17262184619903564 2.35309052467346191 -0.930916309356689453
-0.590411961078643799 1.54992079734802246 -0.229207783937454224
1.15967762470245361 2.70719599723815918 0.28608432412147522
1.09109091758728027 2.66975259780883789 1.07008039951324463
-0.0342846252024173737 1.18054628372192383 -0.435373753309249878
-0.165481522679328918 1.28112626075744629 -0.294859379529953003
1.54221105575561523 2.395538330078125 0.111269883811473846
-0.458672404289245605 1.45019185543060303 -0.334878593683242798
0.160938695073127747 2.18688535690307617 -0.117261826992034912
0.148568302392959595 1.85445296764373779 0.693435132503509521
0.60335010290145874 2.25260615348815918 0.552480638027191162
1.5077139139175415 2.41672873497009277 0.378109365701675415
1.59290969371795654 2.37624120712280273 0.689959704875946045
0.551990926265716553 2.65715861320495605 -0.0693121775984764099
1.33894538879394531 2.57811498641967773 1.04090011119842529
1.16062009334564209 2.35609698295593262 -0.478763043880462646
0.973897874355316162 2.54349160194396973 -0.325031042098999023
0.656939804553985596 2.75938177108764648 -0.12465609610080719
-0.137165740132331848 2.01260280609130859 0.297372162342071533
-0.798291802406311035 1.42752599716186523 0.106309324502944946
-0.158517509698867798 1.08784675598144531 -0.351521581411361694
0.423076361417770386 2.27941274642944336 -0.393151432275772095
0.745744764804840088 2.38920998573303223 0.672809422016143799
-0.538935065269470215 1.48537576198577881 0.38368651270866394
0.359954655170440674 2.03472638130187988 0.33525007963180542
0.341273218393325806 2.06851339340209961 0.895494818687438965
0.400864630937576294 1.64738559722900391 -0.923062682151794434
0.0751564502716064453 1.62136960029602051 0.396897345781326294
0.0462552756071090698 2.25816512107849121 -0.188879892230033875
-0.545298874378204346 1.42809760570526123 -0.260458320379257202
-0.73037797212600708 1.49177694320678711 0.372830420732498169
0.490728437900543213 1.72124111652374268 -0.400598615407943726
-0.895550787448883057 1.3275306224822998 0.0151683799922466278
1.20336949825286865 2.70257258415222168 -0.00821623485535383224
1.415260910987854 2.49598240852355957 0.0796834081411361694
0.896498262882232666 2.07231760025024414 -0.786471545696258545
0.871535241603851318 2.52335429191589355 0.746922314167022705
0.261439085006713867 2.34697532653808594 -0.327335089445114136
1.51349055767059326 2.40645980834960938 0.260282129049301147
0.185592412948608398 1.34349405765533447 -0.36601606011390686
-0.296624094247817993 0.972490310668945312 -0.31706884503364563
-0.00205751252360641956 1.35537111759185791 -0.368070781230926514
0.44109797477722168 2.54102468490600586 0.0634578540921211243
0.991533577442169189 2.17630338668823242 -1.05351197719573975
-0.43549773097038269 1.27656936645507812 0.392564713954925537
-0.486712455749511719 1.38087332248687744 -0.207095295190811157
-0.0557558499276638031 1.49851393699645996 0.403285771608352661
-0.0283849760890007019 2.12806916236877441 -0.0928184464573860168
-0.84283745288848877 1.36291837692260742 -0.129324585199356079
-0.421378761529922485 1.06079983711242676 -0.426220625638961792
1.37550461292266846 2.5139622688293457 0.39916566014289856
-0.0438459627330303192 2.06513857841491699 -0.183974847197532654
1.51876473426818848 2.35650491714477539 -0.754740357398986816
1.11048972606658936 2.31833934783935547 -0.209324419498443604
0.640384674072265625 2.50193929672241211 -0.408648490905761719
0.445221513509750366 2.37419676780700684 -0.418636441230773926
0.544323146343231201 2.19766974449157715 0.442303895950317383
0.692920386791229248 1.90411746501922607 -0.521431982517242432
0.468236476182937622 2.1361241340637207 0.622263848781585693
1.33208668231964111 2.4876856803894043 -0.396351277828216553
-0.601166903972625732 1.61328339576721191 0.0396830663084983826
-0.14229978621006012 1.72384369373321533 0.347271382808685303
-0.89629894495010376 1.32459259033203125 0.18594709038734436
0.772326827049255371 2.43460679054260254 0.792019963264465332
-0.134337693452835083 2.05473923683166504 -0.303963005542755127
1.50381231307983398 2.30853843688964844 -1.31789052486419678
0.43127208948135376 1.66602659225463867 -0.497172772884368896
-0.104841448366641998 2.07035422325134277 0.0273403692990541458
0.692441821098327637 2.3828120231628418 0.948197782039642334
0.640742063522338867 2.75467681884765625 -0.213108554482460022
1.32312798500061035 2.54978537559509277 -0.245399355888366699
0.00798356253653764725 1.10329949855804443 -0.456936627626419067
1.00727081298828125 2.64184021949768066 0.319263041019439697
0.244984671473503113 2.35881400108337402 -0.104597024619579315
0.921666085720062256 2.9555656909942627 -0.146057754755020142
-0.27268373966217041 1.46712040901184082 0.566907703876495361
1.6191103458404541 2.3761754035949707 0.406090080738067627
0.442069709300994873 2.54495072364807129 -0.0322323739528656006
-0.506765305995941162 1.69366991519927979 -0.106155827641487122
-0.152936756610870361 1.93832683563232422 -0.327414155006408691
-0.17274196445941925 2.00863838195800781 0.109889984130859375
0.330977588891983032 1.58244454860687256 -0.505603253841400146
0.906812727451324463 2.50407028198242188 1.08103251457214355
1.29240942001342773 2.59350943565368652 0.200412079691886902
-0.0563127920031547546 1.58767783641815186 0.404005259275436401
0.949265182018280029 2.59927678108215332 0.15927356481552124
0.498339384794235229 2.50750541687011719 -0.322348684072494507
-0.867714107036590576 1.35529303550720215 -0.687085330486297607
-0.736482501029968262 1.43945586681365967 -0.611313581466674805
-0.570471584796905518 1.42938530445098877 -0.368014603853225708
-0.252065509557723999 1.93364155292510986 -0.0573437623679637909
0.0347881019115447998 1.24518346786499023 -0.651341617107391357
0.775713562965393066 2.87141323089599609 -0.108564667403697968
-0.830499172210693359 1.4013218879699707 0.461155146360397339
0.703560233116149902 2.67525553703308105 -0.237962767481803894
-0.501569926738739014 1.70618093013763428 0.298693567514419556
-0.209315970540046692 1.49997866153717041 0.393641144037246704
1.53077447414398193 2.38645601272583008 -0.172560229897499084
0.716423094272613525 2.35242557525634766 0.263527750968933105
0.698127925395965576 1.89054989814758301 -0.738981366157531738
1.3755720853805542 2.46302413940429688 -0.615496277809143066
1.59484076499938965 2.40587639808654785 0.851820290088653564
-0.344017714262008667 1.42012035846710205 0.342337578535079956
-0.508912622928619385 1.18582820892333984 -0.522916913032531738
0.999143838882446289 2.89679288864135742 0.0855878964066505432
0.631417751312255859 2.28279304504394531 0.705809116363525391
1.31995046138763428 2.44710302352905273 -1.25385558605194092
1.43767666816711426 2.39833235740661621 -1.22977054119110107
-0.351958215236663818 1.08132290840148926 -0.322944700717926025
0.205897361040115356 1.39083349704742432 -0.662332653999328613
0.481928318738937378 1.71099936962127686 -0.856932282447814941
0.258069097995758057 2.07106971740722656 0.133862137794494629
0.56220543384552002 2.65381240844726562 -0.245304018259048462
0.3863486647605896 1.61588144302368164 -0.328907787799835205
0.025119168683886528 2.17455124855041504 0.0278789680451154709
0.747648179531097412 2.38849258422851562 0.470941811800003052
-0.39840659499168396 1.15201675891876221 0.479530543088912964
0.919107675552368164 2.09402108192443848 -0.623179018497467041
-0.145827963948249817 1.59064805507659912 0.610846936702728271
0.813682436943054199 2.47089624404907227 -0.22080250084400177
0.539658010005950928 2.5912623405456543 -0.348113447427749634
-0.436091333627700806 1.80233561992645264 -0.247414231300354004
0.319477856159210205 1.99924731254577637 0.572170555591583252
-0.0132152438163757324 1.72216618061065674 0.40950167179107666
1.01017963886260986 2.85506463050842285 -0.228444114327430725
0.760939598083496094 1.93579983711242676 -0.340097546577453613
0.588469922542572021 1.79778623580932617 -0.769398331642150879
-0.621843457221984863 1.36469125747680664 -0.755942225456237793
1.42342281341552734 2.48358583450317383 0.223211959004402161
-0.423591852188110352 1.46679282188415527 0.354008704423904419
-0.274860233068466187 1.01160502433776855 -0.391359955072402954
1.05847501754760742 2.24343132972717285 -0.940068423748016357
0.18350064754486084 2.31073260307312012 0.0460304729640483856
1.13819766044616699 2.76601147651672363 -0.0391074679791927338
-0.893006026744842529 1.3673088550567627 0.59386444091796875
1.5448920726776123 2.43721437454223633 0.650313794612884521
-0.424740016460418701 1.77230536937713623 0.1483469158411026
0.753043711185455322 2.58054924011230469 -0.343085885047912598
-0.493927925825119019 1.71128559112548828 0.130973979830741882
0.802820146083831787 2.48925662040710449 -0.402838915586471558
0.906479597091674805 2.54535102844238281 0.463620245456695557
0.815044879913330078 1.99219560623168945 -0.955916047096252441
0.768791794776916504 2.44645047187805176 1.05247676372528076
1.29355406761169434 2.57721447944641113 0.685045063495635986
-0.250588715076446533 1.94841551780700684 0.201717570424079895
1.02199578285217285 2.19450998306274414 -0.880657970905303955
-0.270061075687408447 1.42480754852294922 0.39260333776473999
-0.0543892234563827515 1.67560720443725586 0.664048433303833008
1.57415235042572021 2.45500874519348145 0.98493725061416626
0.31888282299041748 1.99301981925964355 0.398519158363342285
0.540130198001861572 2.20583724975585938 0.746635496616363525
0.889831602573394775 2.08614540100097656 -0.50750577449798584
0.525955557823181152 2.63109755516052246 0.0998455733060836792
-0.121392026543617249 1.69690394401550293 -0.329063445329666138
0.464832931756973267 1.68824636936187744 -0.738603293895721436
-0.737182319164276123 1.48020505905151367 -0.183875590562820435
1.29288947582244873 2.57920217514038086 0.534068644046783447
-0.299256086349487305 0.986169159412384033 -0.51184004545211792
-0.248231947422027588 1.94149541854858398 0.0338681302964687347
0.561024248600006104 1.78430783748626709 -0.533088982105255127
0.993982076644897461 2.16693878173828125 -0.721070230007171631
-0.0461576357483863831 1.54440760612487793 -0.353430777788162231
-0.125461488962173462 1.04324841499328613 -0.455889433622360229
-0.0759136900305747986 1.33600842952728271 -0.336485505104064941
0.0479678474366664886 1.51504194736480713 -0.190299034118652344
0.751659154891967773 2.86501407623291016 -0.0216570757329463959
0.994223177433013916 2.16237235069274902 -0.618609130382537842
0.0620369315147399902 1.39273452758789062 -0.324742585420608521
1.35253548622131348 2.50478410720825195 -1.12964093685150146
-0.495828211307525635 1.21219122409820557 -0.328455656766891479
-0.518146634101867676 1.68980515003204346 0.0472229868173599243
0.35296332836151123 2.45917272567749023 -0.0631690174341201782
0.223958343267440796 1.9127509593963623 0.301696479320526123
0.352659016847610474 2.04424524307250977 0.778033018112182617
-0.474050462245941162 1.68239784240722656 -0.224104329943656921
-0.102840259671211243 1.19206798076629639 -0.387965142726898193
-0.472626358270645142 1.72624003887176514 -0.0398769564926624298
0.617903470993041992 1.81799995899200439 -0.332754671573638916
-0.583903610706329346 1.36483979225158691 0.358097046613693237
0.248625367879867554 1.43375158309936523 -0.797004044055938721
0.863058388233184814 2.54583215713500977 0.92488020658493042
0.819524705410003662 2.46204948425292969 0.62994462251663208
1.07168102264404297 2.25658917427062988 -1.08818042278289795
0.0699230208992958069 1.56283509731292725 0.482586532831192017
1.07834982872009277 2.31238985061645508 -0.283461302518844604
-0.377454012632369995 1.85050618648529053 0.357109367847442627
-0.282211184501647949 1.82443773746490479 -0.265390783548355103
1.5088810920715332 2.36486649513244629 -1.03067338466644287
0.193673282861709595 1.89390993118286133 0.625507831573486328
0.667904019355773926 2.68513321876525879 0.136312231421470642
1.44352543354034424 2.44509434700012207 -0.180664673447608948
0.0535205192863941193 2.1957862377166748 -0.137872785329818726
1.43823766708374023 2.51078987121582031 1.01742148399353027
0.0970963984727859497 1.57102632522583008 -0.324089676141738892
1.19003105163574219 2.35323572158813477 -1.11660420894622803
1.21214652061462402 2.66153168678283691 0.161603301763534546
-0.785656094551086426 1.43743264675140381 -0.781074404716491699
1.06156754493713379 2.84306454658508301 0.0354265943169593811
0.826656997203826904 2.92110753059387207 0.0160535555332899094
0.883082985877990723 2.54055356979370117 0.298104286193847656
0.462118446826934814 2.14908695220947266 0.809603869915008545
1.27056241035461426 2.61698627471923828 -0.0925455391407012939
1.32346844673156738 2.45862174034118652 -0.283734619617462158
0.531240284442901611 1.76187539100646973 -0.973790347576141357
-0.0881129428744316101 1.98427760601043701 0.159990385174751282
0.958824634552001953 2.9358823299407959 -0.0455014742910861969
1.03703272342681885 2.53511643409729004 -0.256728768348693848
-0.780696272850036621 1.4263606071472168 -0.33007463812828064
0.659285485744476318 1.87299048900604248 -0.447544872760772705
0.6040802001953125 2.24966144561767578 0.365229666233062744
1.09553945064544678 2.26758337020874023 -0.693087279796600342
0.493724405765533447 1.71442198753356934 -0.585386216640472412
-0.0727530196309089661 2.01116061210632324 -0.125524669885635376
0.114256776869297028 1.81406915187835693 0.367164492607116699
-0.801127016544342041 1.43694841861724854 0.396572202444076538
-0.755607724189758301 1.46812057495117188 0.248154953122138977
0.778663158416748047 1.97722542285919189 -0.446258008480072021
-0.819904029369354248 1.3920433521270752 -0.598732113838195801
-0.555959701538085938 1.28813290596008301 -0.331386178731918335
0.143086746335029602 1.84088635444641113 0.212226465344429016
-0.841592490673065186 1.38001918792724609 0.305361509323120117
1.55421590805053711 2.33934187889099121 -0.964673876762390137
-0.174716100096702576 1.32844126224517822 0.406805276870727539
-0.086990751326084137 1.42025649547576904 0.400613903999328613
0.376765727996826172 2.04665279388427734 0.503022730350494385
-0.731695830821990967 1.44044637680053711 -0.705717742443084717
-0.690921485424041748 1.52755069732666016 0.00960101187229156494
-0.509933710098266602 1.19973897933959961 -0.60031503438949585
1.28641235828399658 2.46773791313171387 -1.18583202362060547
-0.392545193433761597 1.36627566814422607 0.422188729047775269
0.256646811962127686 1.52246201038360596 -0.31508365273475647
0.232599347829818726 1.92474150657653809 0.131647124886512756
-0.100198611617088318 1.61867475509643555 0.346749871969223022
1.07225155830383301 2.70996284484863281 0.771643400192260742
1.46311628818511963 2.3860170841217041 -0.708037316799163818
1.52418839931488037 2.36334562301635742 -0.30585893988609314
1.59310948848724365 2.31037402153015137 -0.812719583511352539
0.196859553456306458 1.89180219173431396 0.472833991050720215
-0.354101300239562988 1.16812610626220703 0.405679613351821899
-0.691599786281585693 1.53171825408935547 0.144504129886627197
0.639882743358612061 1.8414764404296875 -0.625859320163726807
1.02268755435943604 2.69471645355224609 1.01243555545806885
0.602769017219543457 1.81409633159637451 -0.95240098237991333
-0.172107145190238953 1.89150404930114746 -0.435791820287704468
0.405238211154937744 2.12363386154174805 0.896105349063873291
1.24094653129577637 2.62737870216369629 0.423249483108520508
0.800456762313842773 2.44203615188598633 0.517268121242523193
-0.548964023590087891 1.63783562183380127 -0.233276382088661194
0.807147204875946045 2.47372174263000488 0.849545598030090332
-0.541341066360473633 1.56169617176055908 0.368867397308349609
0.633651018142700195 2.57308864593505859 -0.35119512677192688
0.734826207160949707 2.87878608703613281 -0.195800140500068665
-0.82831871509552002 1.38581216335296631 -0.489876270294189453
0.753872334957122803 1.97016644477844238 -1.03104174137115479
1.42470431327819824 2.46647906303405762 -0.0420631319284439087
0.453327208757400513 2.11200523376464844 0.206305474042892456
1.24992930889129639 2.43139839172363281 -0.776746511459350586
-0.362018615007400513 1.70160675048828125 0.381748855113983154
-0.405174493789672852 1.79716086387634277 0.0695584192872047424
0.434720307588577271 1.66944313049316406 -0.41408202052116394
0.719606935977935791 2.82775235176086426 0.106353260576725006
0.237816557288169861 1.39283454418182373 -0.417587876319885254
0.765199542045593262 2.60377621650695801 0.131455123424530029
0.019613342359662056 1.48270213603973389 0.46353110671043396
-0.617957770824432373 1.59970581531524658 0.123399995267391205
0.395483553409576416 2.06737208366394043 0.628985941410064697
-0.502503812313079834 1.17309987545013428 -0.4044627845287323
0.688269615173339844 2.33083987236022949 0.686402559280395508
0.753277003765106201 2.72772836685180664 -0.211761161684989929
-0.0463812686502933502 1.47333395481109619 -0.277581781148910522
1.38867676258087158 2.49601244926452637 0.607747852802276611
-0.0267748497426509857 2.12516951560974121 0.135186910629272461
0.746828973293304443 2.38930606842041016 0.147184953093528748
-0.401725590229034424 1.79202032089233398 -0.177839308977127075
-0.0919912829995155334 1.13580334186553955 -0.636365592479705811
1.56613385677337646 2.33022594451904297 -1.11734318733215332
0.342548221349716187 2.45228219032287598 0.0709658041596412659
-0.0238889772444963455 2.1321260929107666 -0.0165219902992248535
0.535913228988647461 1.75214135646820068 -0.704823553562164307
-0.557705342769622803 1.26632940769195557 -0.628485918045043945
-0.362079501152038574 1.20999205112457275 -0.181868061423301697
1.53485739231109619 2.41545891761779785 0.184606388211250305
0.649832308292388916 1.86635434627532959 -1.04325854778289795
0.54299551248550415 1.7726743221282959 -0.450477659702301025
0.768034517765045166 2.47265028953552246 -0.281855940818786621
0.794169425964355469 2.81833648681640625 -0.20284588634967804
0.825365424156188965 2.46507811546325684 0.215982958674430847
-0.265545934438705444 1.90841639041900635 -0.230400830507278442
0.872968733310699463 2.48777222633361816 -0.37446284294128418
1.24010646343231201 2.65294146537780762 0.0564440153539180756
1.11841702461242676 2.76557755470275879 -0.122556194663047791
