ply
format ascii 1.0
element vertex 769
comment vertices
property float x
property float y
property float z
end_header
1.41652238368988037 1.91005206108093262 -0.4398612380027771
0.0168156027793884277 1.53160786628723145 0.934659123420715332
0.216641217470169067 1.16375982761383057 -0.618959963321685791
-0.560295343399047852 1.17372488975524902 -0.181557148694992065
-0.964801788330078125 1.30246686935424805 -0.285734981298446655
0.819090604782104492 1.22425997257232666 -0.685186386108398438
0.398303002119064331 2.32402682304382324 0.0919215008616447449
0.073647916316986084 1.37331533432006836 0.87690436840057373
-0.420109421014785767 1.37656331062316895 -0.187667578458786011
-0.53691411018371582 1.40508997440338135 0.668692588806152344
-0.148727834224700928 1.69343888759613037 -0.310981810092926025
0.313155949115753174 2.2166602611541748 -0.0149941593408584595
1.6514737606048584 1.9390798807144165 -1.27270233631134033
1.32705485820770264 2.35893750190734863 0.354696422815322876
1.35955524444580078 2.05837368965148926 -1.31886065006256104
-0.683130979537963867 1.50235414505004883 -0.205183640122413635
0.313859939575195312 1.81535708904266357 0.010530523955821991
0.733644962310791016 2.39962053298950195 -0.461789608001708984
1.34275436401367188 1.98299098014831543 -0.660000145435333252
0.741183161735534668 2.73305439949035645 -0.413130700588226318
0.370175182819366455 0.713810503482818604 -0.282186508178710938
-0.564376533031463623 1.41321015357971191 -0.301241397857666016
1.11132168769836426 2.16324257850646973 -0.282489687204360962
1.2414555549621582 2.17828154563903809 0.721855103969573975
0.451690196990966797 1.76823151111602783 0.273597180843353271
1.07846033573150635 1.57430195808410645 -0.690551042556762695
-1.00297713279724121 1.67074131965637207 0.0701042711734771729
1.19169795513153076 2.32775306701660156 1.16333854198455811
0.222500741481781006 1.88642489910125732 -0.101321831345558167
1.02739167213439941 2.15718865394592285 0.237460717558860779
-0.356809824705123901 1.38183009624481201 0.521124124526977539
-0.170835137367248535 1.92943453788757324 -0.579526305198669434
-0.0490059852600097656 1.33306598663330078 0.496317207813262939
-0.190973848104476929 1.52409422397613525 0.0599204748868942261
0.271502435207366943 0.962416291236877441 0.125208914279937744
1.23537802696228027 2.58016324043273926 0.258473426103591919
0.960933446884155273 1.41012859344482422 -0.87026447057723999
1.13563871383666992 1.51413619518280029 -0.873216390609741211
-0.699191629886627197 1.39118123054504395 -0.499655187129974365
0.112811364233493805 1.60820341110229492 0.599621772766113281
0.409432947635650635 0.900578737258911133 -0.370297074317932129
-0.00359604507684707642 1.74404597282409668 0.773836016654968262
1.29791820049285889 2.14869284629821777 -0.877562582492828369
-0.548645079135894775 1.2091212272644043 0.231725513935089111
0.232830554246902466 1.62988412380218506 0.467167377471923828
0.94552314281463623 1.93886923789978027 0.708011865615844727
0.20306842029094696 1.30353450775146484 0.566036462783813477
0.610393762588500977 1.2045748233795166 -0.455630123615264893
0.375882536172866821 2.67075371742248535 -0.344820767641067505
1.01387119293212891 1.87238454818725586 -0.256743311882019043
0.834175586700439453 1.87133371829986572 0.676786243915557861
0.724261164665222168 2.66190004348754883 0.0660516247153282166
0.374815225601196289 1.890952467918396 -0.177222788333892822
0.869130909442901611 3.01044297218322754 -0.145701706409454346
1.55515682697296143 2.16151690483093262 -0.590857505798339844
-0.872519552707672119 0.982779979705810547 0.119219757616519928
-0.227016180753707886 1.0211484432220459 0.0987949073314666748
0.936569631099700928 2.09517240524291992 1.28767204284667969
0.582581520080566406 1.38095200061798096 -0.466360270977020264
-0.339630842208862305 1.3247683048248291 0.119873672723770142
0.034129612147808075 1.63718247413635254 0.566263318061828613
-0.195069074630737305 1.31054162979125977 -0.152788251638412476
1.17311882972717285 2.29695796966552734 -1.13208222389221191
1.07621872425079346 1.85734367370605469 1.25656843185424805
0.765411674976348877 2.07657814025878906 1.05808234214782715
0.291541159152984619 1.57601273059844971 0.210082650184631348
0.416288942098617554 1.77708637714385986 1.03419005870819092
0.205749928951263428 1.38908481597900391 0.873419284820556641
-0.842285633087158203 1.32042396068572998 -0.313444435596466064
0.141275018453598022 1.37168502807617188 0.483259826898574829
0.933908939361572266 1.5572810173034668 -0.766857385635375977
0.16829197108745575 1.23375976085662842 -0.329440087080001831
1.55708861351013184 2.00524425506591797 -1.69966316223144531
1.52243959903717041 2.23325371742248535 0.458489209413528442
1.53091537952423096 2.40177679061889648 0.311645984649658203
0.757476091384887695 1.58991312980651855 -0.07395172119140625
0.208201408386230469 1.0416100025177002 -0.302540361881256104
1.33317351341247559 2.49657249450683594 0.20908510684967041
1.65452516078948975 2.26623177528381348 0.298105478286743164
-0.517065584659576416 0.810445904731750488 0.82563328742980957
-0.603045225143432617 1.81398093700408936 -0.31990891695022583
1.52271318435668945 2.05924487113952637 0.586791276931762695
-0.316298335790634155 1.11991226673126221 0.309924960136413574
0.414232611656188965 1.50625622272491455 -0.61400216817855835
1.02134132385253906 2.86030769348144531 -0.0470450855791568756
-0.58881068229675293 1.46323537826538086 0.37850797176361084
1.40553891658782959 1.89258170127868652 -1.0218966007232666
0.882234334945678711 2.11256814002990723 0.300545960664749146
-0.39624398946762085 1.23022031784057617 0.448846757411956787
1.01782691478729248 1.82790660858154297 -0.052824556827545166
0.338263988494873047 1.69823241233825684 0.866769671440124512
1.67988002300262451 2.26799869537353516 0.253824830055236816
0.480858415365219116 1.65473675727844238 0.658298075199127197
-0.823466777801513672 1.02889847755432129 -0.580775320529937744
1.24137473106384277 2.27094388008117676 0.320704400539398193
1.14743232727050781 2.27501559257507324 0.480799704790115356
1.04888224601745605 2.89327454566955566 -0.468769431114196777
1.10776638984680176 2.5352020263671875 0.825188279151916504
0.0119588375091552734 1.06969249248504639 0.467860311269760132
0.950582563877105713 2.38962578773498535 -0.192255213856697083
0.990274727344512939 2.40487790107727051 -0.350867629051208496
0.765640497207641602 2.09864664077758789 0.431715816259384155
1.15008783340454102 2.32425427436828613 0.488162875175476074
0.373556554317474365 1.7560809850692749 0.61625826358795166
0.327191144227981567 1.83434569835662842 0.0618406534194946289
1.04967379570007324 2.17996621131896973 0.664701879024505615
0.340833961963653564 2.45905637741088867 -0.719766020774841309
0.244373172521591187 1.10411942005157471 -0.550258636474609375
0.058710440993309021 1.00389134883880615 -0.382875978946685791
0.411965668201446533 2.73875594139099121 -0.421803802251815796
0.449271827936172485 1.08164310455322266 -0.518902599811553955
0.798163294792175293 1.75632309913635254 0.689736127853393555
1.31003808975219727 1.51682507991790771 -0.414154320955276489
1.48653769493103027 2.14693856239318848 -1.83728909492492676
0.0458002984523773193 2.08479547500610352 -0.047796785831451416
0.645522773265838623 2.36779141426086426 -0.17810136079788208
1.11390900611877441 2.58587384223937988 0.615031540393829346
1.69868457317352295 2.18225216865539551 -1.25558996200561523
1.556252121925354 1.8117823600769043 -0.431369423866271973
0.72653961181640625 2.84600520133972168 -0.201183587312698364
0.358512401580810547 1.51613807678222656 0.226892054080963135
0.584801554679870605 2.59092330932617188 -0.182784050703048706
1.56550168991088867 2.2111504077911377 0.738695740699768066
0.776688575744628906 2.84068989753723145 -0.181214958429336548
1.27200591564178467 2.32960772514343262 1.03982114791870117
0.361407607793807983 1.25411248207092285 -0.165961802005767822
1.02640175819396973 1.32626938819885254 -0.594513118267059326
0.0423804745078086853 1.66460168361663818 0.464131057262420654
0.381809115409851074 1.05268323421478271 -0.460603475570678711
0.0282611101865768433 2.23082089424133301 0.215797305107116699
0.620544552803039551 1.81279659271240234 0.19613395631313324
0.226735949516296387 0.963140726089477539 -0.501723706722259521
1.29109930992126465 2.16694879531860352 0.696665346622467041
-0.0232524871826171875 1.81315433979034424 -0.107672058045864105
1.73406100273132324 1.87359523773193359 -0.494308143854141235
-0.267960458993911743 1.5418848991394043 0.897443771362304688
1.6186368465423584 2.25868868827819824 0.933444619178771973
1.88258922100067139 2.46443510055541992 0.163336291909217834
1.51493597030639648 1.71631717681884766 -0.771293520927429199
1.27791571617126465 2.21082067489624023 1.20472884178161621
-0.42020609974861145 2.12323379516601562 -0.493776381015777588
-0.705367445945739746 1.78783869743347168 0.3052864670753479
0.641422808170318604 1.52601492404937744 -0.639814496040344238
-0.524011194705963135 1.32270514965057373 0.129913777112960815
0.936011731624603271 1.46305453777313232 -0.681462943553924561
-0.734790325164794922 1.25128042697906494 -0.0572804436087608337
1.09916138648986816 2.07167649269104004 1.46704471111297607
0.952554583549499512 1.43190550804138184 -0.490462929010391235
1.44898080825805664 1.78862571716308594 -0.341096013784408569
0.964109420776367188 2.25144863128662109 1.22157859802246094
1.02364838123321533 2.18896675109863281 0.663230061531066895
-0.711830258369445801 1.74123907089233398 0.266849160194396973
-0.114119440317153931 1.16893446445465088 -0.39874383807182312
0.138473033905029297 1.03263199329376221 -0.472885280847549438
-0.624820113182067871 1.42870700359344482 0.240395843982696533
0.611826062202453613 1.16964364051818848 -0.725211858749389648
1.32370662689208984 2.03538060188293457 -0.228428035974502563
-0.572339773178100586 1.23874127864837646 -0.478682607412338257
0.697246968746185303 1.21692705154418945 -0.84773552417755127
0.961794793605804443 2.59319901466369629 -0.496079862117767334
0.771632492542266846 1.26271867752075195 -0.805417537689208984
1.09994149208068848 2.08921694755554199 0.70217132568359375
1.219512939453125 2.0693213939666748 -0.334813535213470459
0.857221126556396484 2.42271518707275391 0.104834437370300293
-0.189820185303688049 1.53809881210327148 -0.613734602928161621
1.0169903039932251 2.55097627639770508 -0.213680297136306763
1.21585595607757568 2.78190946578979492 0.277819216251373291
0.971099615097045898 2.55043363571166992 -0.316948145627975464
1.74289178848266602 1.93100190162658691 -0.0255572646856307983
0.404096245765686035 1.11025190353393555 -0.371872246265411377
1.62480688095092773 2.14712715148925781 -1.60701370239257812
0.7191581130027771 1.81631660461425781 0.584050655364990234
0.0593257397413253784 0.986965000629425049 -0.378227889537811279
0.300650238990783691 1.95016741752624512 -0.0016126725822687149
1.57880508899688721 1.99994492530822754 -0.606694042682647705
0.592953026294708252 3.14227533340454102 -0.207075268030166626
-0.600537717342376709 1.08925819396972656 -0.201501816511154175
1.08116650581359863 2.23424148559570312 0.918650031089782715
1.58072924613952637 1.81860113143920898 -0.570683121681213379
-0.778748035430908203 1.45701658725738525 -0.784317135810852051
0.05427512526512146 1.69342303276062012 0.232483536005020142
1.00567007064819336 2.42334842681884766 0.114971749484539032
-0.752571344375610352 1.05908310413360596 0.225322708487510681
-0.185855209827423096 1.4288254976272583 0.608898043632507324
1.45269358158111572 1.97148096561431885 -1.28264045715332031
-0.178344488143920898 1.48120224475860596 0.561922430992126465
1.07944536209106445 2.267364501953125 1.13086450099945068
0.409192502498626709 2.00483107566833496 -0.525664567947387695
-0.604795396327972412 1.6318671703338623 -0.0713133141398429871
-0.571354866027832031 1.19088184833526611 -0.117892533540725708
-0.535605430603027344 1.09862875938415527 -0.490584373474121094
-0.484564095735549927 1.0005115270614624 0.196606218814849854
0.642117500305175781 1.87247395515441895 0.359042346477508545
1.14504170417785645 1.45678591728210449 -0.779450654983520508
0.998195350170135498 2.01015305519104004 -0.0384903997182846069
0.388876020908355713 2.43694257736206055 0.119466684758663177
-0.46313101053237915 1.16633844375610352 -0.274388253688812256
0.806057155132293701 1.91976547241210938 0.718400120735168457
1.1328575611114502 1.63891661167144775 -0.814032375812530518
0.341220438480377197 1.68795096874237061 0.905209779739379883
0.61870419979095459 2.94199061393737793 -0.264770865440368652
-0.347636878490447998 1.21795952320098877 0.0608624815940856934
0.0301435366272926331 1.86634683609008789 0.262251079082489014
0.273095309734344482 1.84788405895233154 0.00301393866539001465
1.55498158931732178 1.8900604248046875 -0.338477343320846558
0.760195136070251465 1.32634162902832031 -0.627220332622528076
0.971819400787353516 2.31511878967285156 1.1039276123046875
0.202335536479949951 1.66164636611938477 0.429677277803421021
1.53939604759216309 2.0955812931060791 -0.247946351766586304
-0.288069635629653931 1.4833303689956665 -0.297570556402206421
0.340430855751037598 1.05567371845245361 -0.00285118818283081055
0.810786604881286621 1.92508506774902344 0.455806255340576172
0.17862391471862793 1.57284438610076904 0.727871417999267578
-0.405426561832427979 1.34754610061645508 0.374094277620315552
0.0116555020213127136 1.36162757873535156 -0.525379419326782227
-0.0209655687212944031 1.53271734714508057 -1.00932395458221436
1.50650107860565186 1.92955303192138672 -0.60045623779296875
0.950416445732116699 2.459808349609375 -0.364911466836929321
0.497062355279922485 2.18163561820983887 -0.170849934220314026
-0.321823298931121826 1.22253608703613281 0.228185445070266724
-0.0835431814193725586 1.76933419704437256 0.436446875333786011
0.805341720581054688 2.2502899169921875 1.1640549898147583
0.291956067085266113 2.37308287620544434 -0.205567359924316406
-0.75967484712600708 1.30027830600738525 0.456313401460647583
0.929122805595397949 2.04188966751098633 -1.92513823509216309
1.36413073539733887 2.17432522773742676 -1.21878743171691895
1.04005229473114014 2.07388591766357422 1.09939777851104736
1.15841174125671387 1.75893270969390869 -1.05223202705383301
1.16888558864593506 2.18941998481750488 0.931448280811309814
1.66528880596160889 2.00619721412658691 -0.713506400585174561
1.28180181980133057 1.71585440635681152 -0.898647546768188477
0.435706108808517456 1.11157417297363281 -0.447778016328811646
-0.0367292836308479309 1.73064947128295898 -0.25947260856628418
0.389748632907867432 1.05785489082336426 -0.498359620571136475
-0.200151115655899048 0.84985661506652832 -0.639593899250030518
-0.24907056987285614 1.47673821449279785 -0.919113457202911377
-0.98308253288269043 1.45319771766662598 -0.397874742746353149
-0.0172173380851745605 1.40826296806335449 0.299273014068603516
-0.347966760396957397 1.52409899234771729 -0.352811098098754883
0.841409385204315186 2.21491599082946777 1.0315934419631958
0.953511059284210205 2.60103654861450195 0.239850431680679321
0.860165834426879883 2.21008586883544922 -0.421522557735443115
0.654802083969116211 1.35357403755187988 -0.548458397388458252
-0.379379540681838989 1.62281715869903564 0.392874568700790405
0.986491203308105469 1.94850325584411621 -0.286182582378387451
0.686661601066589355 1.33190071582794189 -0.90316241979598999
-0.485055088996887207 1.01649999618530273 -0.619779586791992188
-0.637862086296081543 1.91604864597320557 -0.107353538274765015
1.25233268737792969 2.82453632354736328 0.566710829734802246
0.524115145206451416 2.91425323486328125 -0.504318654537200928
0.415485531091690063 1.67645859718322754 0.126718640327453613
-0.636008381843566895 1.24046504497528076 -0.554866135120391846
0.329770058393478394 1.61632513999938965 0.407460212707519531
0.513725459575653076 2.35580348968505859 -0.112338684499263763
-0.1087169349193573 1.41140592098236084 0.444629788398742676
-0.158887296915054321 1.48274672031402588 -0.453961968421936035
-0.513601541519165039 1.68068599700927734 0.596378922462463379
1.3598254919052124 2.43450617790222168 0.411765187978744507
1.07925868034362793 2.14172840118408203 -0.165400892496109009
-0.585346460342407227 1.63451290130615234 0.292398571968078613
-0.381940364837646484 1.04830098152160645 -0.364185035228729248
1.19117879867553711 2.18906092643737793 0.769991099834442139
-0.301228851079940796 0.885074377059936523 -0.0835718810558319092
-1.15946698188781738 1.18611335754394531 -0.454820930957794189
0.127382412552833557 1.01045894622802734 -0.454343259334564209
0.73078620433807373 1.853049635887146 1.1761314868927002
1.10384976863861084 2.25908160209655762 -1.98247289657592773
-0.353630125522613525 1.69554591178894043 0.474061131477355957
0.735890209674835205 2.24853825569152832 -0.352618306875228882
1.18457973003387451 2.37571597099304199 0.506515622138977051
1.08106398582458496 2.43776559829711914 -0.334119737148284912
-0.499577432870864868 1.361488938331604 0.164469361305236816
0.561059117317199707 1.89307570457458496 -0.236589878797531128
0.861527085304260254 1.77337229251861572 -0.307107925415039062
0.359491169452667236 1.15912294387817383 -0.736820459365844727
0.702266454696655273 1.85700404644012451 1.03621268272399902
0.322288095951080322 1.09986376762390137 -0.516481697559356689
0.748139023780822754 1.33614957332611084 -0.881077289581298828
-0.396034061908721924 1.34236311912536621 -0.68454974889755249
0.234271794557571411 1.20424532890319824 -0.282630056142807007
1.35127270221710205 2.39538240432739258 0.702761352062225342
-0.925275504589080811 1.37557375431060791 -0.265950769186019897
0.583687484264373779 1.69587934017181396 1.01797139644622803
0.924149215221405029 2.99783539772033691 -0.265338718891143799
1.30198025703430176 2.12995219230651855 0.855483174324035645
0.95274055004119873 1.84569478034973145 0.985509097576141357
1.33494901657104492 2.53486275672912598 0.81816256046295166
1.09446549415588379 1.8886568546295166 -0.22452428936958313
0.983288824558258057 2.58549833297729492 -0.242662802338600159
0.224744200706481934 2.28005242347717285 -0.200706407427787781
1.52877366542816162 2.07191014289855957 -0.50392913818359375
0.285553932189941406 1.93213737010955811 0.312605351209640503
0.332559555768966675 1.4775238037109375 0.642656266689300537
0.836637735366821289 1.66761243343353271 -0.294416904449462891
0.972766280174255371 1.98999404907226562 1.2538677453994751
-0.814551413059234619 1.57238590717315674 0.526426136493682861
1.61931765079498291 1.54661440849304199 -0.260946512222290039
1.03654611110687256 1.49906373023986816 -0.941550016403198242
0.910418331623077393 2.44681406021118164 -0.100736021995544434
1.34226047992706299 2.15422701835632324 -1.39225864410400391
0.749191939830780029 1.80849504470825195 0.636274456977844238
0.328982532024383545 1.6515575647354126 0.798299551010131836
1.46226561069488525 2.3391728401184082 0.409845441579818726
0.251761317253112793 1.31708955764770508 0.503391742706298828
1.32191669940948486 2.25390386581420898 0.456261813640594482
-0.352930516004562378 1.57147622108459473 -0.559902727603912354
0.267494171857833862 1.7799384593963623 0.292505204677581787
-0.677809536457061768 1.30633068084716797 -0.00964160263538360596
-0.261144787073135376 1.36589395999908447 0.382820844650268555
0.230893567204475403 2.21620941162109375 -0.065181240439414978
1.73272705078125 2.26198935508728027 0.164535790681838989
0.292147576808929443 1.67912697792053223 -0.0548047274351119995
0.341607600450515747 1.73167955875396729 0.860355019569396973
1.01784348487854004 2.35193872451782227 1.18121242523193359
0.384760916233062744 1.09975016117095947 -0.760654091835021973
-1.06728267669677734 1.28009712696075439 -0.426816463470458984
1.14035403728485107 2.28903603553771973 0.865629911422729492
0.794224441051483154 1.68366861343383789 -0.286864340305328369
0.938053905963897705 2.48599433898925781 -0.168630972504615784
-0.177861332893371582 1.49723005294799805 -0.675116896629333496
1.55910646915435791 1.90841269493103027 -0.462719738483428955
-0.575276374816894531 1.18593430519104004 -0.42670246958732605
1.62319684028625488 1.79760932922363281 -0.271589547395706177
0.131897971034049988 1.94567644596099854 -0.546301543712615967
1.6210169792175293 2.11652374267578125 -0.734636902809143066
-0.603931248188018799 1.23466074466705322 -0.0825303494930267334
1.1823422908782959 2.64338946342468262 0.138575822114944458
1.04222762584686279 2.23666882514953613 1.08356261253356934
0.273206025362014771 1.01519608497619629 -0.470884203910827637
-0.0886345207691192627 1.1131441593170166 -0.204920157790184021
1.55466961860656738 2.13963198661804199 0.221601486206054688
-0.5547637939453125 0.944590508937835693 -0.0265576839447021484
0.131710603833198547 1.90440750122070312 -0.0291348546743392944
0.302354633808135986 1.44005632400512695 1.15260171890258789
0.731293797492980957 1.90826022624969482 0.698015153408050537
1.38778567314147949 2.09363865852355957 0.405889958143234253
1.34630858898162842 2.20824694633483887 0.609729528427124023
0.694843649864196777 2.55606293678283691 -0.0597331151366233826
1.30895054340362549 2.3560950756072998 1.21281921863555908
1.10371613502502441 1.7711021900177002 -0.132523030042648315
0.877900123596191406 2.50248241424560547 -0.290823131799697876
0.627314925193786621 2.71529245376586914 -0.0485303550958633423
0.138550832867622375 1.77367162704467773 0.218812957406044006
-0.851089298725128174 0.935209035873413086 0.278219759464263916
0.407859653234481812 1.01682102680206299 -0.230480611324310303
0.487700045108795166 2.34751439094543457 -0.563199818134307861
0.833818137645721436 2.23793411254882812 0.909250140190124512
-0.437035501003265381 1.41526055335998535 0.510004997253417969
0.592094600200653076 1.91068804264068604 0.286105960607528687
0.411900460720062256 1.65096640586853027 1.05723023414611816
0.651938557624816895 1.17822539806365967 -0.674902737140655518
0.15650475025177002 1.48952043056488037 0.441844969987869263
0.115889549255371094 2.09921407699584961 0.0259632319211959839
-0.550533950328826904 1.21905684471130371 -0.190405070781707764
-0.625607728958129883 1.5369575023651123 0.0219078660011291504
0.776107430458068848 1.62055516242980957 -0.353095352649688721
-1.0019688606262207 1.00746870040893555 -0.0300310961902141571
0.98804396390914917 2.91990852355957031 0.0174775011837482452
1.36382246017456055 2.24787139892578125 -0.0914564579725265503
1.48857021331787109 1.76759767532348633 -0.875541567802429199
1.07144355773925781 2.03311753273010254 1.14269673824310303
0.0162667334079742432 2.4021906852722168 -0.335999786853790283
1.49154078960418701 2.26994013786315918 0.314270734786987305
0.493574380874633789 0.971145510673522949 -0.38785061240196228
0.0380697846412658691 1.04076945781707764 -0.0157983899116516113
0.143077030777931213 1.2770545482635498 -0.530127525329589844
0.405271202325820923 2.45482182502746582 -0.123490296304225922
1.41689133644104004 1.85741662979125977 -0.840337038040161133
-0.237363755702972412 1.29096090793609619 0.356433361768722534
-0.470936805009841919 1.00331437587738037 0.127361088991165161
0.22628629207611084 1.28787314891815186 0.564416706562042236
0.267541497945785522 1.78163206577301025 -0.207198858261108398
-0.901566684246063232 1.11690247058868408 -0.374778151512145996
-0.352647155523300171 1.32132148742675781 -0.33036234974861145
1.39713048934936523 2.19205546379089355 0.399584352970123291
0.227183356881141663 1.85292708873748779 -0.392803847789764404
1.61337828636169434 1.88956141471862793 -0.580081820487976074
1.18476748466491699 1.76729202270507812 0.0456880927085876465
0.896271169185638428 2.03708696365356445 -0.520791053771972656
0.497860819101333618 2.4637148380279541 -0.672836422920227051
0.68010103702545166 1.77206051349639893 0.657179653644561768
0.749636590480804443 1.35588812828063965 -0.731676101684570312
0.615803837776184082 1.69639408588409424 0.767007589340209961
0.95372474193572998 2.42525672912597656 -0.382092297077178955
-0.655569732189178467 1.13780760765075684 0.136743277311325073
0.00693868100643157959 1.52894699573516846 0.591446816921234131
-0.698385477066040039 1.2518925666809082 0.0173421204090118408
0.988077342510223389 2.10604190826416016 1.19629335403442383
0.232524514198303223 2.07015228271484375 -0.566144406795501709
1.41079175472259521 2.1353001594543457 -1.78767144680023193
0.485048353672027588 1.59439373016357422 -0.581565260887145996
0.161231517791748047 1.70363032817840576 0.123345352709293365
0.836734175682067871 2.05082964897155762 1.09374213218688965
0.666304290294647217 3.01382946968078613 -0.148821651935577393
0.873435854911804199 2.73118925094604492 -0.264897674322128296
0.484400123357772827 0.890419960021972656 -0.31756255030632019
1.17425632476806641 2.37257885932922363 0.614091753959655762
0.446121096611022949 2.27158451080322266 0.0803411081433296204
0.745933055877685547 3.06002593040466309 -0.168801218271255493
-0.00925832986831665039 1.38626945018768311 0.621628761291503906
1.51615512371063232 2.19473409652709961 0.376040220260620117
0.531198561191558838 2.24589252471923828 -0.104131706058979034
-0.472438454627990723 1.51522350311279297 0.0942945629358291626
-0.0794107168912887573 1.6190255880355835 -1.00509262084960938
-0.0417701303958892822 1.59786701202392578 0.401990443468093872
0.447386264801025391 1.41079914569854736 -0.592026114463806152
1.11582803726196289 2.00288510322570801 1.33608472347259521
1.6451716423034668 2.49436450004577637 0.210896804928779602
0.119206316769123077 1.37539958953857422 0.5986328125
1.162955641746521 2.41317009925842285 0.292082786560058594
0.564689934253692627 2.47954010963439941 -0.25341641902923584
-1.05071759223937988 1.03366291522979736 -0.450641483068466187
-0.935139834880828857 1.12891626358032227 -0.713890433311462402
-0.534563899040222168 1.43643748760223389 -0.534505844116210938
-0.252667814493179321 1.7347036600112915 0.0225299559533596039
0.701200604438781738 0.919977903366088867 -0.693235397338867188
0.729367673397064209 2.88440775871276855 -0.187503412365913391
-0.664952337741851807 1.80121815204620361 0.386652290821075439
0.9841042160987854 2.82334780693054199 -0.297742843627929688
-0.330709218978881836 1.5218883752822876 0.477351933717727661
0.117990151047706604 1.3448033332824707 0.647831082344055176
1.60279810428619385 2.06561517715454102 -0.0260546356439590454
1.11921191215515137 2.2551116943359375 0.430229038000106812
1.1484215259552002 1.57753705978393555 -0.754818141460418701
1.3240206241607666 1.9658050537109375 -0.472642391920089722
1.20756316184997559 2.04289793968200684 1.02734291553497314
-0.127790391445159912 1.19436502456665039 0.408581197261810303
-0.407235562801361084 1.32353615760803223 -0.422071754932403564
0.908695340156555176 2.75726032257080078 -0.307538151741027832
0.761843383312225342 1.91762375831604004 0.797158718109130859
1.3026580810546875 2.14298105239868164 -1.50084555149078369
1.38585805892944336 2.06136107444763184 -1.53976631164550781
-0.168922454118728638 1.03073465824127197 -0.150523722171783447
0.542693853378295898 1.34120488166809082 -0.718681931495666504
0.629309535026550293 1.37079930305480957 -1.00948882102966309
0.503905832767486572 2.009796142578125 0.119785785675048828
0.721926450729370117 2.61054253578186035 -0.425882160663604736
0.626134037971496582 1.48880863189697266 -0.328100889921188354
0.25467604398727417 2.15970849990844727 -0.130425631999969482
0.777574360370635986 2.08400750160217285 0.989715218544006348
-0.404133468866348267 1.05004537105560303 0.383709609508514404
1.13348162174224854 1.64530253410339355 -0.811562776565551758
-0.0141239762306213379 1.53966355323791504 0.486405491828918457
0.672781109809875488 2.4814307689666748 -0.188515901565551758
0.765959084033966064 2.46657347679138184 -0.343269854784011841
-0.603319346904754639 1.98660755157470703 -0.3967876136302948
0.473939806222915649 1.7889854907989502 0.610079348087310791
0.090794004499912262 1.58785605430603027 0.538386821746826172
0.766488194465637207 2.84185934066772461 -0.317851036787033081
0.825440585613250732 1.37523305416107178 -0.259417891502380371
1.07449650764465332 1.44221401214599609 -0.702207684516906738
-0.79683232307434082 1.05580854415893555 -0.450232535600662231
1.49387276172637939 2.32176971435546875 0.244299024343490601
-0.194822609424591064 1.0661013126373291 0.337380200624465942
0.0777034759521484375 1.24130427837371826 -0.57226109504699707
1.6252211332321167 1.75942742824554443 -0.712721467018127441
0.230095624923706055 2.1822962760925293 0.161436989903450012
0.918409585952758789 3.01988720893859863 -0.0253007300198078156
-0.866541385650634766 1.42069995403289795 0.508381843566894531
1.22928762435913086 2.12519359588623047 0.469565629959106445
-0.175282537937164307 1.47481131553649902 0.513913154602050781
0.863794803619384766 2.44100332260131836 -0.353874295949935913
-0.226943641901016235 1.27396678924560547 0.447405517101287842
0.781344473361968994 2.38426065444946289 -0.350058585405349731
0.951924741268157959 2.38190054893493652 0.815991401672363281
1.19724774360656738 1.62644946575164795 -0.992637515068054199
1.09981977939605713 1.96645283699035645 1.25077533721923828
1.39633631706237793 2.27370309829711914 0.480669230222702026
-0.226682782173156738 1.6635596752166748 0.469479680061340332
1.41074204444885254 1.88489854335784912 -0.643442273139953613
0.0534024536609649658 1.15044581890106201 0.519422173500061035
0.12167946994304657 1.47496914863586426 0.714719116687774658
1.19548797607421875 2.33026480674743652 0.902754008769989014
0.310774654150009155 1.86442363262176514 0.412145525217056274
0.815521538257598877 1.83062887191772461 0.895302712917327881
0.763022541999816895 1.50339889526367188 -0.442650198936462402
0.748242855072021484 2.42734766006469727 -0.218978896737098694
-0.0895732864737510681 1.73187673091888428 -0.35458722710609436
0.665664851665496826 1.39539706707000732 -0.925244331359863281
-0.811638236045837402 1.39607405662536621 0.113656848669052124
1.5357900857925415 2.26223993301391602 0.412409842014312744
0.088322371244430542 1.11621475219726562 -0.620155394077301025
0.105018824338912964 1.48128986358642578 0.259129226207733154
1.04128575325012207 1.42459535598754883 -0.644382774829864502
1.35762548446655273 1.59579801559448242 -0.495665252208709717
0.0211694762110710144 1.23332071304321289 -0.28147926926612854
0.222710192203521729 0.742102265357971191 -0.242720037698745728
0.119782693684101105 1.27863097190856934 -0.287293434143066406
0.256049960851669312 0.991808533668518066 -0.51508486270904541
0.862909257411956787 2.8718879222869873 -0.0369641371071338654
1.18581223487854004 1.58062887191772461 -0.391189485788345337
0.0767065063118934631 1.12131965160369873 -0.590281128883361816
1.40348470211029053 2.21087336540222168 -1.30895888805389404
-0.554168999195098877 1.31060945987701416 -0.373896032571792603
-0.342333018779754639 1.24920654296875 0.304062604904174805
0.421240568161010742 2.16106581687927246 -0.085009351372718811
0.388802111148834229 1.66812336444854736 0.32046961784362793
0.467555999755859375 1.7152857780456543 0.933494448661804199
-0.468089252710342407 1.30941152572631836 0.153768226504325867
0.0208863541483879089 1.01578497886657715 -0.435461580753326416
-0.276567190885543823 1.43045508861541748 0.259091347455978394
0.836850643157958984 1.55608963966369629 -0.367911875247955322
-0.43395581841468811 1.08834409713745117 0.704414248466491699
0.487649023532867432 1.48871517181396484 -0.666875839233398438
1.04555022716522217 2.02074718475341797 1.23955512046813965
0.889711380004882812 2.05232143402099609 0.842941224575042725
1.47615325450897217 1.99329710006713867 -1.13446044921875
0.211702793836593628 1.47722077369689941 0.549016058444976807
1.04102098941802979 1.76739978790283203 -0.00107926130294799805
-0.294054597616195679 1.51551294326782227 0.582286477088928223
-0.257644116878509521 2.1234433650970459 -0.563479602336883545
1.64648282527923584 2.06765985488891602 -1.33357012271881104
0.263708353042602539 1.39056777954101562 0.916563749313354492
0.847940564155578613 2.40841841697692871 0.120995357632637024
1.02006769180297852 2.44447731971740723 -0.215460360050201416
0.214782610535621643 1.88476133346557617 -0.0906718969345092773
1.1952056884765625 2.40465354919433594 1.1075817346572876
0.267942607402801514 1.14793658256530762 -0.192721843719482422
1.28449201583862305 2.17972040176391602 -1.23421680927276611
1.11676430702209473 2.51372337341308594 0.171561181545257568
-0.516376495361328125 1.41103041172027588 -0.529032588005065918
0.950962245464324951 2.59211516380310059 -0.0721957981586456299
0.90398561954498291 2.96308016777038574 -0.231528639793395996
1.26463150978088379 2.34715008735656738 0.495400965213775635
0.614714622497558594 1.76325511932373047 1.11236882209777832
0.958939015865325928 3.02193379402160645 0.040090024471282959
0.978884100914001465 2.4416348934173584 -0.393646568059921265
0.885705947875976562 1.1016085147857666 -0.917513072490692139
0.294187992811203003 1.73347866535186768 0.202218919992446899
0.831603825092315674 3.04331541061401367 -0.314095854759216309
0.883754074573516846 2.36332321166992188 -0.192583844065666199
-0.679384827613830566 1.30666053295135498 -0.10920301079750061
0.810326755046844482 1.53198552131652832 -0.611389517784118652
0.745843052864074707 2.03597879409790039 0.633328795433044434
1.34844720363616943 1.69041204452514648 -0.358404487371444702
0.905471622943878174 1.46618294715881348 -0.638689756393432617
0.214357525110244751 1.73180580139160156 -0.40414312481880188
0.29677051305770874 1.58153724670410156 0.398980408906936646
-0.724810361862182617 1.54769182205200195 0.316796541213989258
-0.743575394153594971 1.38342058658599854 0.276895195245742798
0.791492223739624023 1.47562825679779053 -0.544413328170776367
-0.947535395622253418 1.32707703113555908 -0.675694108009338379
-0.617670118808746338 1.3338770866394043 -0.403580933809280396
0.353683650493621826 1.60334336757659912 0.14144057035446167
-0.74059218168258667 1.6729809045791626 0.0881301164627075195
1.78217208385467529 1.95980310440063477 -1.09935235977172852
0.196660175919532776 1.14101040363311768 0.571984171867370605
0.285494089126586914 1.33215630054473877 0.45056113600730896
0.565091609954833984 1.73532736301422119 0.695157647132873535
-0.866941213607788086 1.23776543140411377 -0.420655161142349243
-0.475953966379165649 1.07719695568084717 0.125517457723617554
-0.218521744012832642 1.00101494789123535 -0.505564391613006592
1.3660660982131958 2.27046680450439453 -1.41311824321746826
-0.32686769962310791 1.38479101657867432 0.334584057331085205
0.256761997938156128 1.22436511516571045 -0.278800845146179199
0.467333436012268066 1.91315078735351562 0.00797633081674575806
0.0691261142492294312 1.38690519332885742 0.733304858207702637
0.965093672275543213 2.47004938125610352 1.10192561149597168
1.50138747692108154 1.9407203197479248 -0.603646636009216309
1.63158190250396729 1.94006156921386719 -0.0411647260189056396
1.53303682804107666 1.89378118515014648 -0.831241488456726074
0.264622926712036133 1.39876043796539307 0.716003954410552979
-0.466156005859375 1.04406797885894775 0.43112298846244812
-0.617539405822753906 1.30505514144897461 0.280946135520935059
0.984272241592407227 1.42317628860473633 -0.641029834747314453
0.958876073360443115 2.3111121654510498 1.26967537403106689
0.777131438255310059 1.16161608695983887 -0.815581202507019043
-0.0272176116704940796 1.49031805992126465 -0.982076883316040039
0.618560671806335449 1.77346277236938477 1.03719735145568848
1.41850781440734863 2.37418842315673828 0.474309772253036499
0.903590917587280273 2.12133479118347168 1.02678036689758301
-0.282092779874801636 1.29384922981262207 -0.112827114760875702
0.976579785346984863 2.10403132438659668 1.24545860290527344
-0.401054233312606812 1.3088306188583374 0.505879878997802734
0.810950279235839844 2.31304240226745605 -0.401654899120330811
0.779868900775909424 2.91447949409484863 -0.219701990485191345
-0.936208188533782959 1.49924635887145996 -0.547830462455749512
1.10183095932006836 1.57541894912719727 -0.991743266582489014
0.97832953929901123 2.24747705459594727 0.134455516934394836
0.816275596618652344 1.85154986381530762 0.385206937789916992
1.51548421382904053 1.92603743076324463 -0.463615536689758301
-0.0602812767028808594 1.39116621017456055 0.599371910095214844
-0.0883605480194091797 1.3213425874710083 0.487255334854125977
0.608214378356933594 1.75995397567749023 -0.388246655464172363
0.736660659313201904 2.45681500434875488 -0.0035959780216217041
0.552280604839324951 0.981009602546691895 -0.404271215200424194
0.857493758201599121 2.47786831855773926 0.363422304391860962
0.188822820782661438 1.43912053108215332 0.5946158766746521
-0.454460620880126953 1.13131451606750488 0.254745841026306152
0.452050626277923584 1.62251174449920654 0.902630746364593506
-0.584333956241607666 1.15112245082855225 -0.267514526844024658
0.791216552257537842 2.08948945999145508 0.782466769218444824
0.653769314289093018 2.76738071441650391 -0.260716080665588379
0.148365974426269531 1.33620309829711914 -0.289737492799758911
1.54526376724243164 2.26407003402709961 0.305835455656051636
0.26447102427482605 2.02951741218566895 0.0194526538252830505
0.972530007362365723 2.33070111274719238 0.396958053112030029
-0.649102866649627686 1.90967953205108643 -0.135285899043083191
0.00386606901884078979 0.817418336868286133 -0.34053078293800354
1.47866380214691162 2.15744876861572266 -1.43726420402526855
0.386492669582366943 2.20244097709655762 0.106299594044685364
0.313200801610946655 2.21857595443725586 -0.342244833707809448
1.02848458290100098 1.35554695129394531 -0.852883577346801758
-0.502210021018981934 0.960565626621246338 -0.560353577136993408
-0.125627607107162476 1.10933709144592285 -0.103071011602878571
1.54118490219116211 2.21077728271484375 0.244585618376731873
0.707591116428375244 1.43120098114013672 -0.925228357315063477
0.905711472034454346 1.3402557373046875 -0.636896371841430664
0.818165957927703857 2.32926058769226074 -0.345711827278137207
0.727200329303741455 2.83196878433227539 -0.444197595119476318
1.20161378383636475 2.30094623565673828 0.426572799682617188
-0.179706066846847534 1.92025184631347656 -0.523405075073242188
0.691452085971832275 2.35195565223693848 -0.240671515464782715
1.13896715641021729 2.73911809921264648 0.00987615436315536499
0.779723167419433594 2.75762343406677246 -0.269724249839782715
1.08253920078277588 1.68889415264129639 -0.0210267007350921631
0.144576072692871094 2.0029301643371582 -0.134352222084999084
1.38043808937072754 2.18722438812255859 0.911642313003540039
-0.330944150686264038 1.27742135524749756 0.478577286005020142
1.15751564502716064 2.0414276123046875 1.29416060447692871
-0.329771935939788818 1.43469691276550293 0.397651255130767822
-0.519165635108947754 1.12130248546600342 0.407530248165130615
-0.590637326240539551 1.40650224685668945 -0.125174015760421753
0.330499589443206787 1.56151986122131348 0.419260174036026001
0.347163945436477661 1.02717673778533936 -0.537560701370239258
1.74782180786132812 1.78517508506774902 -0.417362868785858154
1.59314727783203125 2.35208940505981445 0.344494253396987915
0.466976016759872437 2.685699462890625 -0.166054293513298035
1.13244247436523438 2.0238499641418457 1.00289034843444824
-0.448196321725845337 1.36183130741119385 -0.448077023029327393
0.732712984085083008 1.97217345237731934 0.438541650772094727
1.53164267539978027 2.13985443115234375 -0.490785181522369385
-0.0288947522640228271 1.83391201496124268 -0.720975875854492188
0.649489164352416992 1.37704730033874512 -0.655665993690490723
1.36100566387176514 2.2074887752532959 0.543596267700195312
1.66980922222137451 2.03802204132080078 -0.600584506988525391
0.651154875755310059 1.06490755081176758 -0.902666687965393066
1.32710599899291992 2.06419467926025391 -0.403082579374313354
0.505137979984283447 1.08011031150817871 -0.594198524951934814
1.25651395320892334 2.04357147216796875 0.790953874588012695
1.38083410263061523 2.41017341613769531 1.03065991401672363
0.71959000825881958 3.01790666580200195 -0.407037883996963501
-0.0354413986206054688 1.14253175258636475 0.36875489354133606
1.26892614364624023 2.05771160125732422 0.530938029289245605
-0.547741532325744629 1.31954145431518555 0.279925525188446045
1.50497782230377197 1.83479142189025879 -0.600939452648162842
0.222649872303009033 1.19851624965667725 -0.156870394945144653
-0.79970097541809082 1.20483052730560303 -0.114650174975395203
0.841959595680236816 2.38882708549499512 1.32508444786071777
1.01273393630981445 2.1898651123046875 1.29860448837280273
0.929507195949554443 2.39225649833679199 0.00704712048172950745
1.28976845741271973 1.67699718475341797 -0.914976179599761963
0.265100598335266113 1.16984868049621582 -0.49451109766960144
0.14013671875 1.31202816963195801 0.288157850503921509
0.277449607849121094 1.69443464279174805 0.858320236206054688
0.590647637844085693 2.58856463432312012 -0.115450188517570496
1.052703857421875 2.05323886871337891 1.35852015018463135
-0.711038351058959961 1.21254503726959229 -0.115856342017650604
0.431782245635986328 2.42291760444641113 -0.126561835408210754
0.498463034629821777 1.19653403759002686 -0.407683312892913818
1.27274930477142334 2.3296818733215332 0.952229499816894531
1.54815125465393066 2.1983036994934082 -1.62556719779968262
0.913529753684997559 2.62442326545715332 0.36056828498840332
0.282690972089767456 2.21283125877380371 -0.11172090470790863
0.0443224161863327026 1.26098513603210449 -0.464074641466140747
1.36305952072143555 1.97725522518157959 0.956296682357788086
0.106567144393920898 1.15475928783416748 0.487509667873382568
-0.342664033174514771 1.05659615993499756 0.244072943925857544
-0.574852883815765381 1.45545291900634766 -0.196806013584136963
0.97335582971572876 2.4267890453338623 0.653070449829101562
1.16847622394561768 2.12702655792236328 0.529041588306427002
1.51573336124420166 1.99174618721008301 -0.627938389778137207
0.826735496520996094 2.99211478233337402 -0.363543212413787842
0.226716712117195129 1.07642185688018799 -0.20375293493270874
0.722398877143859863 1.90395915508270264 0.832076787948608398
0.831451833248138428 1.83576118946075439 1.18199717998504639
1.10233902931213379 2.3037872314453125 1.15282678604125977
1.02679944038391113 2.17609000205993652 1.47556853294372559
1.50807034969329834 2.08887267112731934 -1.47919893264770508
-0.361681938171386719 2.01491951942443848 -0.482139170169830322
-0.0548358559608459473 1.28792142868041992 -0.272233963012695312
0.154735401272773743 1.63530004024505615 0.50263059139251709
1.4577791690826416 1.92269086837768555 -0.897060871124267578
1.32198596000671387 1.82439923286437988 -0.840234696865081787
1.58089053630828857 2.12838411331176758 -0.981441020965576172
-0.486947596073150635 1.46560156345367432 0.257876366376876831
0.356501638889312744 1.82371902465820312 -0.265048891305923462
1.00117194652557373 3.10005712509155273 -0.23242563009262085
0.773976683616638184 1.97606015205383301 0.791303634643554688
0.922531425952911377 1.41051590442657471 -0.980075597763061523
0.639062941074371338 1.97474050521850586 -0.274811863899230957
1.0551832914352417 2.3665165901184082 0.467302829027175903
-0.420262783765792847 1.19788146018981934 -0.417822122573852539
0.152603238821029663 2.22542762756347656 0.0369938276708126068
0.356313765048980713 1.64135313034057617 0.237875640392303467
0.811116933822631836 2.62955260276794434 -0.151043161749839783
0.144929453730583191 1.38773274421691895 0.568419575691223145
0.395290404558181763 1.50430035591125488 -0.730668306350708008
1.26161336898803711 2.14107513427734375 -0.313084036111831665
-0.560486674308776855 1.31538152694702148 0.36328423023223877
0.914912581443786621 2.07441592216491699 0.322103738784790039
-0.62834089994430542 1.48120081424713135 -0.666470766067504883
0.325015634298324585 1.68725299835205078 0.66359865665435791
-0.285823523998260498 1.45478236675262451 0.548113226890563965
1.0683969259262085 1.42212498188018799 -0.833100378513336182
1.11721599102020264 1.90357935428619385 0.0364594757556915283
-1.00403749942779541 1.0675579309463501 -0.300743341445922852
1.53479969501495361 2.26864194869995117 0.538378477096557617
-0.554079055786132812 1.23703718185424805 0.089603617787361145
1.15440249443054199 2.28216218948364258 1.16231560707092285
0.573406338691711426 2.58877015113830566 -0.155103877186775208
0.958699822425842285 1.73451268672943115 -0.373654574155807495
0.150095313787460327 1.26851046085357666 -0.189806312322616577
0.790965914726257324 2.45611119270324707 -0.343818157911300659
0.329823106527328491 2.44625759124755859 -0.334616154432296753
0.340099036693572998 1.68377399444580078 0.459709793329238892
0.839958667755126953 2.27542805671691895 -0.165992021560668945
0.84694904088973999 2.90746140480041504 -0.482085764408111572
0.158592522144317627 2.43841910362243652 -0.0985626578330993652
1.71948528289794922 1.79868364334106445 -0.673918485641479492
-0.246069282293319702 1.26180124282836914 -0.290512323379516602
1.48921036720275879 2.29738616943359375 0.556796371936798096
1.03720676898956299 2.07966089248657227 1.13661587238311768
0.0797938406467437744 1.69628119468688965 0.379344403743743896
-0.296471118927001953 1.6657249927520752 0.499709397554397583
1.30781924724578857 2.24741601943969727 0.360504478216171265
-1.01628994941711426 1.15504336357116699 -0.152170255780220032
-0.760871469974517822 1.59493577480316162 0.441887080669403076
1.43736433982849121 2.50354480743408203 0.312119156122207642
0.246496722102165222 1.71503674983978271 0.859593033790588379
-0.318883180618286133 1.24686956405639648 0.588205158710479736
1.1488875150680542 1.91652297973632812 -0.160705149173736572
0.168195232748985291 1.41353940963745117 0.700084388256072998
1.22341418266296387 1.97721958160400391 -0.279044866561889648
-0.538114607334136963 1.5464317798614502 0.469958454370498657
-0.759467244148254395 1.77944552898406982 0.351080507040023804
0.708321452140808105 2.03071069717407227 0.507283627986907959
0.632719576358795166 1.47630977630615234 -0.702208757400512695
0.386312246322631836 0.866818368434906006 -0.407625317573547363
-0.250990778207778931 1.20123589038848877 -0.317645013332366943
1.14198017120361328 2.53594732284545898 0.343562841415405273
-0.587963342666625977 1.25611710548400879 -0.447441577911376953
-0.629347383975982666 1.39272403717041016 -0.455800652503967285
-0.296117484569549561 1.36973476409912109 0.00857453793287277222
0.247650817036628723 2.25060892105102539 0.034466184675693512
1.27890980243682861 1.85191667079925537 0.0668911933898925781
0.619032740592956543 1.66006147861480713 0.664535403251647949
1.40401303768157959 2.22306609153747559 1.23586750030517578
0.730141580104827881 2.86118769645690918 -0.586104750633239746
1.40971553325653076 2.34446835517883301 0.314701080322265625
1.23526275157928467 1.91385960578918457 -0.268229365348815918
1.406136155128479 2.3877105712890625 -1.67967057228088379
0.332754433155059814 1.8841862678527832 -0.693920910358428955
0.622278988361358643 2.95246243476867676 -0.0500344410538673401
-0.0847177207469940186 1.75235629081726074 0.471839070320129395
1.49232518672943115 1.91290152072906494 -0.276243448257446289
0.434718519449234009 1.20862817764282227 -0.734997928142547607
0.495472192764282227 1.72073566913604736 0.0358217507600784302
-0.219794660806655884 1.17480993270874023 -0.62096017599105835
0.45822790265083313 1.18730556964874268 -0.471094995737075806
0.826144933700561523 2.19564461708068848 -0.487565875053405762
1.07927286624908447 1.4105762243270874 -0.633034825325012207
1.08312368392944336 2.59349894523620605 -0.557885408401489258
1.1248929500579834 2.02581262588500977 -1.86812138557434082
1.32493090629577637 2.0905609130859375 -0.957839667797088623
-1.08975529670715332 1.24982321262359619 -0.319595575332641602
-0.760308623313903809 0.949075222015380859 -0.00910141691565513611
0.0639676302671432495 1.68377041816711426 -0.227958321571350098
0.00671304762363433838 1.75961995124816895 0.00401358678936958313
