ply
format ascii 1.0
element vertex 764
comment vertices
property float x
property float y
property float z
end_header
-0.864489376544952393 1.3480827808380127 -0.389479249715805054
0.503175735473632812 2.19001007080078125 0.84461522102355957
-0.285038262605667114 0.971275031566619873 -0.490657627582550049
-0.301152616739273071 1.41920590400695801 0.362678498029708862
-0.76397627592086792 1.47073495388031006 0.523396432399749756
-0.896474778652191162 1.32640540599822998 -0.0248309038579463959
-0.487597376108169556 1.40511429309844971 -0.335052579641342163
-0.408290594816207886 1.73504054546356201 0.370336771011352539
-0.0090974634513258934 1.13836145401000977 -0.437811195850372314
1.45550203323364258 2.39336490631103516 -0.419098436832427979
1.17685401439666748 2.6928403377532959 0.976667881011962891
1.09970176219940186 2.66112327575683594 -0.335486501455307007
1.47133660316467285 2.38933610916137695 -0.947012245655059814
0.166482150554656982 1.86492323875427246 0.588943660259246826
1.41660678386688232 2.50784111022949219 1.07503902912139893
0.807267844676971436 2.45029377937316895 0.559550583362579346
1.29034101963043213 2.58529996871948242 0.573424279689788818
-0.843324840068817139 1.3695601224899292 -0.305775344371795654
1.08527100086212158 2.80127286911010742 -0.129142925143241882
-0.248308509588241577 1.11955714225769043 -0.319865167140960693
-0.663529932498931885 1.55360352993011475 0.0474924221634864807
-0.68670201301574707 1.47190165519714355 0.488594502210617065
-0.59528273344039917 1.6199716329574585 0.127800911664962769
1.01157593727111816 2.61808943748474121 1.07804465293884277
-0.82028508186340332 1.41021406650543213 0.458856344223022461
-0.828444838523864746 1.38591527938842773 -0.563281476497650146
-0.175635173916816711 1.57415807247161865 0.658659040927886963
0.765128910541534424 2.47812438011169434 -0.291899263858795166
-0.45131075382232666 1.1029893159866333 -0.536697328090667725
0.887137353420257568 2.51298069953918457 0.702440202236175537
0.864910662174224854 2.04758286476135254 -0.950252652168273926
1.41752827167510986 2.48008441925048828 0.571770310401916504
0.0422044210135936737 1.25707459449768066 -0.710239052772521973
-0.609584152698516846 1.32846415042877197 -0.533253371715545654
-0.822944164276123047 1.38832640647888184 -0.235395908355712891
-0.203366473317146301 1.54033339023590088 0.625271797180175781
-0.670019984245300293 1.39271199703216553 -0.605452537536621094
-0.233028754591941833 1.94734752178192139 -0.15748828649520874
-0.339613884687423706 1.37373638153076172 0.373992681503295898
-0.723470091819763184 1.50138795375823975 0.214532703161239624
-0.307752043008804321 1.20001864433288574 0.4403400719165802
1.22505068778991699 2.65130901336669922 0.289497256278991699
-0.38507157564163208 1.40979909896850586 -0.247249886393547058
0.0112678892910480499 1.47426652908325195 0.455573529005050659
1.3034592866897583 2.56981921195983887 0.489400684833526611
-0.81773608922958374 1.40965855121612549 0.448399960994720459
1.38005781173706055 2.51907038688659668 0.118502780795097351
0.435872942209243774 2.1383204460144043 0.852043628692626953
-0.10666009783744812 1.15474700927734375 -0.411845117807388306
-0.665861070156097412 1.55232143402099609 -0.0519629381597042084
1.5565330982208252 2.38220572471618652 -0.0642221421003341675
-0.0806399211287498474 1.37383806705474854 -0.340683907270431519
1.4531172513961792 2.44460916519165039 0.337608277797698975
1.11244356632232666 2.33835601806640625 -0.510928630828857422
-0.138449713587760925 1.34164726734161377 0.466730117797851562
1.21977043151855469 2.65162158012390137 0.314226716756820679
0.04281582310795784 1.29599988460540771 -0.317112654447555542
0.0426777377724647522 1.82744026184082031 0.204489782452583313
0.311706423759460449 2.02450847625732422 0.840156018733978271
-0.470937609672546387 1.73276126384735107 -0.0302368272095918655
-0.161942318081855774 1.5825040340423584 0.664910614490509033
1.42657184600830078 2.49171113967895508 0.0934840217232704163
1.36809384822845459 2.54580068588256836 1.07342398166656494
-0.198173925280570984 1.06227540969848633 -0.380316555500030518
1.45463347434997559 2.39428019523620605 -0.364211440086364746
1.39798963069915771 2.49233722686767578 0.519755661487579346
0.0166765898466110229 1.48661398887634277 0.424101084470748901
-0.898886263370513916 1.33742189407348633 0.389599651098251343
1.33525323867797852 2.54472804069519043 0.620105087757110596
0.58030325174331665 2.62021565437316895 -0.312211662530899048
-0.565774261951446533 1.64678490161895752 -0.159070998430252075
-0.0130907641723752022 1.4523003101348877 0.456869721412658691
1.51665031909942627 2.42027425765991211 0.463604629039764404
1.30773091316223145 2.56191372871398926 0.32184329628944397
-0.555684089660644531 1.32336187362670898 0.368944287300109863
-0.0244349054992198944 1.69126260280609131 0.562864482402801514
-0.70789802074432373 1.51688146591186523 0.317553281784057617
-0.25977662205696106 0.993218302726745605 -0.454715162515640259
-0.850809156894683838 1.36371433734893799 0.0740365684032440186
0.559615433216094971 2.21501708030700684 0.636703073978424072
1.19511878490447998 2.67058110237121582 0.78395378589630127
0.0416948795318603516 1.22085440158843994 -0.525056719779968262
-0.104401536285877228 1.62488842010498047 0.576663315296173096
-0.887381374835968018 1.33366405963897705 -0.359236955642700195
-0.332598567008972168 1.85939252376556396 0.0155371390283107758
-0.458671033382415771 1.11193990707397461 -0.519009113311767578
0.633655846118927002 1.85062384605407715 -0.434943705797195435
0.419692724943161011 2.09072589874267578 0.559604763984680176
-0.837399005889892578 1.38103139400482178 -0.523262679576873779
0.142591804265975952 1.28052937984466553 -0.363548010587692261
1.43141388893127441 2.47614717483520508 0.102099955081939697
1.60540771484375 2.36399960517883301 0.290126711130142212
0.270162671804428101 1.44839859008789062 -0.615740835666656494
-0.653781712055206299 1.56452775001525879 -0.0672742277383804321
-0.473022222518920898 1.29332327842712402 0.557128846645355225
0.339033573865890503 1.57262623310089111 -0.709150969982147217
-0.0601333118975162506 1.1470102071762085 -0.463335394859313965
-0.895491838455200195 1.36200988292694092 0.569540977478027344
-0.409968316555023193 1.79219865798950195 0.296457350254058838
1.54988348484039307 2.32577180862426758 -0.654816985130310059
1.50473928451538086 2.35561060905456543 -1.09174323081970215
1.36747479438781738 2.47037816047668457 -0.910380959510803223
-0.654592156410217285 1.56218242645263672 0.0769784599542617798
1.60502052307128906 2.28476572036743164 -1.20026946067810059
-0.101567395031452179 1.62810981273651123 0.580739319324493408
0.0365438945591449738 1.75397038459777832 0.61201554536819458
1.42499446868896484 2.4610600471496582 -0.181670889258384705
-0.383050113916397095 1.37692999839782715 0.415363818407058716
0.532530546188354492 1.7560802698135376 -0.932107150554656982
0.264994412660598755 1.45586001873016357 -0.343519359827041626
-0.212643146514892578 1.2810739278793335 0.457767486572265625
-0.635131657123565674 1.38705968856811523 -0.33514830470085144
0.325223922729492188 2.42416930198669434 -0.250583469867706299
0.127921357750892639 1.33299362659454346 -0.469169557094573975
0.136861294507980347 1.69190561771392822 -0.329699844121932983
-0.330589890480041504 1.15498220920562744 -0.293708682060241699
-0.0543892234563827515 1.67560720443725586 0.664048433303833008
-0.377740710973739624 1.8146824836730957 -0.0906962156295776367
1.11784839630126953 2.78348016738891602 0.0446642301976680756
-0.138811811804771423 1.34431147575378418 0.46033814549446106
-0.323635697364807129 1.8834226131439209 0.184963762760162354
1.49694037437438965 2.43729043006896973 0.0679498612880706787
-0.927768051624298096 1.3210446834564209 -0.671832799911499023
0.45256158709526062 2.11474180221557617 0.46498793363571167
1.2975543737411499 2.46800518035888672 -1.03014981746673584
-0.332724958658218384 1.76373624801635742 0.382447600364685059
0.624077796936035156 1.84038949012756348 -0.514399886131286621
-0.804938614368438721 1.42557764053344727 0.333392411470413208
0.997499823570251465 2.6361842155456543 0.156388118863105774
-0.0194479338824748993 1.06333756446838379 -0.511582612991333008
-0.877224326133728027 1.33944523334503174 -0.0809974819421768188
-0.0200561694800853729 1.3622441291809082 -0.332916051149368286
0.687775909900665283 2.32972311973571777 0.703070521354675293
-0.626399993896484375 1.48651742935180664 -0.34803241491317749
0.959691047668457031 2.62226605415344238 0.742361366748809814
-0.876735806465148926 1.35053873062133789 0.353710085153579712
0.970541417598724365 2.14386701583862305 -0.684068441390991211
-0.247147738933563232 1.25098609924316406 0.438185036182403564
-0.655680179595947266 1.46141374111175537 0.630279779434204102
0.481563746929168701 1.71854352951049805 -0.959900796413421631
0.654396533966064453 1.85270965099334717 -0.339261382818222046
-0.266833066940307617 1.93942022323608398 0.258603692054748535
-0.0555381625890731812 2.1084747314453125 -0.0280670188367366791
-0.828262746334075928 1.37969374656677246 0.110831119120121002
-0.817809104919433594 1.39223647117614746 -0.538595736026763916
0.657982885837554932 2.35650277137756348 1.01852238178253174
0.173655375838279724 2.29779815673828125 -0.0277050361037254333
-0.581289112567901611 1.6344980001449585 0.0431033708155155182
0.829871535301208496 2.47352910041809082 0.469116657972335815
-0.627408504486083984 1.59092247486114502 0.0900716856122016907
-0.141612932085990906 2.01645374298095703 0.256801098585128784
1.41338205337524414 2.4396064281463623 -0.980750739574432373
0.707455337047576904 2.50290274620056152 -0.428410559892654419
-0.761618316173553467 1.47061502933502197 0.351605236530303955
0.516148567199707031 1.73491382598876953 -0.934630692005157471
1.12356293201446533 2.74574112892150879 1.01123619079589844
1.56288611888885498 2.31272077560424805 -0.485938608646392822
-0.458105593919754028 1.3658301830291748 -0.207598283886909485
1.51133298873901367 2.35373663902282715 -0.712604284286499023
0.970099508762359619 2.1555783748626709 -0.595629990100860596
-0.77381134033203125 1.45080256462097168 0.167332187294960022
-0.346267640590667725 1.00421690940856934 -0.548949003219604492
-0.598956823348999023 1.29163670539855957 -0.397201687097549438
-0.329171538352966309 1.39336740970611572 0.366491705179214478
1.40491652488708496 2.49536633491516113 0.689734518527984619
-0.0984560400247573853 1.13541722297668457 -0.624775707721710205
0.386207312345504761 2.46101522445678711 -0.273490160703659058
-0.326533347368240356 1.18282020092010498 0.474789798259735107
-0.821709692478179932 1.40817666053771973 0.458209484815597534
-0.36367371678352356 1.83118236064910889 0.125441044569015503
-0.181002601981163025 1.11037969589233398 -0.360846847295761108
1.55202817916870117 2.33399319648742676 -0.38715595006942749
-0.421949058771133423 1.77565908432006836 -0.014615875668823719
-0.50940316915512085 1.23415946960449219 -0.329596102237701416
0.565321564674377441 2.22506475448608398 0.769173681735992432
0.588642656803131104 2.66934561729431152 0.140975654125213623
0.422956377267837524 1.64699828624725342 -0.459500104188919067
-0.836413741111755371 1.36119890213012695 -0.124015264213085175
0.114928439259529114 2.24325776100158691 0.0956038981676101685
-0.584147810935974121 1.36548042297363281 0.445494562387466431
-0.409956365823745728 1.28610658645629883 0.402350485324859619
-0.867680191993713379 1.38010776042938232 0.551984310150146484
-0.46441921591758728 1.73533535003662109 0.319547981023788452
0.603942811489105225 2.25242805480957031 0.473786503076553345
1.59666347503662109 2.34565997123718262 -0.130165934562683105
1.3197176456451416 2.56881546974182129 0.150241360068321228
1.32153141498565674 2.55815291404724121 0.703142881393432617
1.55502223968505859 2.39870023727416992 0.679288983345031738
0.231944382190704346 1.91970312595367432 0.338261306285858154
-0.678005576133728027 1.53884601593017578 0.127843961119651794
-0.269151270389556885 1.45879673957824707 0.353819996118545532
1.5447540283203125 2.44503617286682129 0.835109949111938477
-0.34178316593170166 1.16667461395263672 0.453686714172363281
1.19840502738952637 2.67533445358276367 0.157559901475906372
-0.73519665002822876 1.4783627986907959 -0.237369880080223083
-0.858415365219116211 1.36805808544158936 0.400646746158599854
-0.372438788414001465 1.83071327209472656 0.210826441645622253
-0.585436880588531494 1.62322402000427246 0.320804506540298462
-0.775203883647918701 1.43691670894622803 -0.564772367477416992
0.691151678562164307 1.92061638832092285 -1.07756602764129639
-0.39183691143989563 1.02309048175811768 -0.457507818937301636
-0.430497080087661743 1.33097183704376221 0.568214118480682373
-0.0710797607898712158 1.95486652851104736 0.284833431243896484
-0.384271323680877686 1.73374021053314209 -0.294640839099884033
0.566317915916442871 1.78957939147949219 -0.886027097702026367
-0.725430488586425781 1.49461531639099121 0.482715606689453125
-0.412796974182128906 1.78088593482971191 -0.18004019558429718
1.42957139015197754 2.46852731704711914 0.373179197311401367
-0.240913033485412598 1.26529490947723389 0.424765199422836304
1.12672889232635498 2.77713394165039062 -0.0182259473949670792
0.386621773242950439 2.05964350700378418 0.558986663818359375
-0.792321085929870605 1.45571482181549072 0.636525392532348633
1.59633493423461914 2.39049053192138672 0.750775992870330811
0.403715759515762329 2.09371066093444824 0.804166913032531738
0.971467196941375732 2.92579984664916992 0.00968405511230230331
1.4042365550994873 2.50927829742431641 0.0660934820771217346
-0.469520092010498047 1.37461173534393311 -0.343767315149307251
0.430327713489532471 2.53348922729492188 0.0347617901861667633
1.46023523807525635 2.40233659744262695 -0.928479611873626709
0.457777410745620728 2.1153264045715332 0.249922215938568115
0.503121495246887207 2.16796636581420898 0.674848079681396484
-0.320037692785263062 1.001228928565979 -0.379191786050796509
1.5088810920715332 2.36486649513244629 -1.03067338466644287
-0.837955236434936523 1.38593208789825439 0.360060751438140869
1.57021200656890869 2.44242238998413086 0.993071198463439941
-0.845623433589935303 1.36849606037139893 -0.382293730974197388
0.0438989661633968353 1.77022325992584229 0.710505783557891846
-0.762504458427429199 1.4698941707611084 0.394556492567062378
-0.719338893890380859 1.50555872917175293 0.142280593514442444
0.170795470476150513 1.34800732135772705 -0.46944504976272583
-0.721680819988250732 1.50295722484588623 0.20637376606464386
0.628655672073364258 2.5309603214263916 -0.427820980548858643
1.37996375560760498 2.51824045181274414 -0.104311279952526093
1.51646268367767334 2.3687889575958252 -1.05109763145446777
0.190550073981285095 1.41915059089660645 -0.318005919456481934
1.16675639152526855 2.70263004302978516 0.350874096155166626
-0.343745708465576172 1.17498302459716797 0.478119879961013794
0.0958187133073806763 1.79779136180877686 0.17405371367931366
-0.438850283622741699 1.75917887687683105 -0.0608449764549732208
1.14427053928375244 2.71359896659851074 0.46308434009552002
1.56483995914459229 2.32469081878662109 -0.430317789316177368
-0.414949357509613037 1.78879714012145996 0.345509469509124756
1.32357335090637207 2.51391172409057617 -0.242065146565437317
-0.453056812286376953 1.12322151660919189 -0.627039909362792969
0.335337698459625244 2.43132925033569336 -0.19128139317035675
1.57405579090118408 2.37705755233764648 -0.0104204863309860229
0.550477266311645508 2.19913506507873535 0.206133618950843811
-0.375008910894393921 0.992320477962493896 -0.471246540546417236
1.36267936229705811 2.52857542037963867 0.485716760158538818
0.143694356083869934 1.84340333938598633 0.410260796546936035
0.997593581676483154 2.6308293342590332 0.357056885957717896
-0.740730166435241699 1.48881173133850098 0.599636852741241455
-0.282700985670089722 1.79875755310058594 -0.334030061960220337
0.510970473289489746 1.72372984886169434 -0.730581879615783691
-0.326163917779922485 1.88201713562011719 0.23388315737247467
1.55978250503540039 2.31928634643554688 -0.531961679458618164
0.0755478441715240479 1.7794802188873291 0.357109040021896362
0.757499456405639648 2.8687434196472168 0.0484753064811229706
-0.426727592945098877 1.30530393123626709 0.367935627698898315
0.405376642942428589 2.0775296688079834 0.575143218040466309
-0.149129122495651245 1.1208348274230957 -0.427995562553405762
1.46888422966003418 2.45134353637695312 0.238196983933448792
-0.186863616108894348 1.99719440937042236 0.101876646280288696
-0.0543812960386276245 1.16831302642822266 -0.458216995000839233
-0.796462357044219971 1.43198418617248535 0.0771433115005493164
-0.584563612937927246 1.62807607650756836 0.186025872826576233
-0.291880607604980469 1.81892013549804688 -0.274962902069091797
-0.837667942047119141 1.36932921409606934 -0.36664813756942749
0.405563026666641235 2.0716094970703125 0.256574124097824097
1.23384785652160645 2.43660235404968262 -0.546949625015258789
0.879832446575164795 2.05296087265014648 -0.754949986934661865
0.685785293579101562 2.37402153015136719 0.914722084999084473
-0.39859500527381897 1.38146471977233887 -0.252755701541900635
-0.386541992425918579 1.42367255687713623 -0.268833458423614502
-0.220913290977478027 1.38514125347137451 -0.297170668840408325
0.865978479385375977 2.51982927322387695 0.718309700489044189
-0.817802190780639648 1.39310765266418457 -0.164310827851295471
-0.718063533306121826 1.42666852474212646 -0.494006961584091187
0.66251295804977417 2.31912732124328613 0.767549276351928711
-0.253783375024795532 1.92994582653045654 0.325226813554763794
1.11841702461242676 2.76557755470275879 -0.122556194663047791
-0.491011232137680054 1.71568787097930908 0.176097407937049866
0.74290919303894043 2.85485172271728516 0.0697642192244529724
0.342489361763000488 1.58483457565307617 -0.875088930130004883
-0.363925158977508545 1.00038588047027588 -0.451426059007644653
-0.131973773241043091 1.60613751411437988 0.65728384256362915
1.35865473747253418 2.5418238639831543 0.772608101367950439
0.0953074246644973755 1.55244362354278564 0.456573665142059326
-0.882992923259735107 1.33326804637908936 0.0477031618356704712
-0.508275985717773438 1.69746994972229004 0.0218385681509971619
1.48705458641052246 2.47791790962219238 1.0393904447555542
-0.514924228191375732 1.39125227928161621 -0.237819507718086243
-0.401049822568893433 1.0330578088760376 -0.439521640539169312
-0.863165974617004395 1.35733914375305176 0.0483430363237857819
0.860129117965698242 2.02695584297180176 -0.697785019874572754
1.53157389163970947 2.40412735939025879 0.367037773132324219
1.36285281181335449 2.52271342277526855 0.544984161853790283
0.600150823593139648 2.24553799629211426 0.193495571613311768
-0.420930713415145874 1.77381181716918945 -0.162387892603874207
1.44995200634002686 2.40701961517333984 -1.33011126518249512
-0.805629909038543701 1.43301868438720703 0.284992903470993042
0.683406174182891846 2.80639934539794922 -0.031466163694858551
-0.378630369901657104 1.42824912071228027 -0.220444351434707642
-0.47711905837059021 1.25507593154907227 0.3839682936668396
1.29475688934326172 2.57746076583862305 0.633163809776306152
1.10151219367980957 2.27853822708129883 -0.731914341449737549
-0.249129191040992737 1.46908295154571533 0.358875751495361328
-0.501598954200744629 1.7033994197845459 0.11451200395822525
-0.840089082717895508 1.38074970245361328 -0.5285530686378479
-0.172844871878623962 1.57518184185028076 0.659069597721099854
-0.156093984842300415 1.08375394344329834 -0.522697210311889648
-0.817379951477050781 1.41271126270294189 0.505821108818054199
-0.878027617931365967 1.34376001358032227 -0.0940163880586624146
0.00559611152857542038 1.48138558864593506 0.41997113823890686
0.792284488677978516 1.96702313423156738 -0.619368374347686768
-0.157081559300422668 2.02008724212646484 0.249849870800971985
-0.133240923285484314 1.10972738265991211 -0.467449307441711426
-0.659421384334564209 1.55766963958740234 -0.158586487174034119
1.21381092071533203 2.41048026084899902 -0.887553751468658447
0.883959352970123291 2.94022345542907715 -0.189655616879463196
0.739366590976715088 1.93392693996429443 -0.695483088493347168
1.02133214473724365 2.66127800941467285 0.552989959716796875
0.824370026588439941 2.47724127769470215 0.651979923248291016
-0.319640070199966431 1.43997931480407715 0.621626019477844238
-0.585651636123657227 1.62552344799041748 0.345219135284423828
0.0469693802297115326 1.17073655128479004 -0.450615078210830688
1.2100825309753418 2.65246844291687012 0.59389948844909668
-0.476542651653289795 1.1199716329574585 -0.349038302898406982
0.476665735244750977 1.69611871242523193 -0.345682829618453979
1.28105020523071289 2.59026837348937988 0.440873622894287109
1.27142798900604248 2.63220000267028809 -0.013576180674135685
0.108335681259632111 1.17779088020324707 -0.544155001640319824
-0.562805056571960449 1.65046536922454834 0.268045425415039062
1.60134732723236084 2.29731011390686035 -0.794770956039428711
1.18508040904998779 2.71769356727600098 -0.0439633801579475403
-0.172133967280387878 1.07152640819549561 -0.601956307888031006
1.3832244873046875 2.44545769691467285 -0.362003177404403687
-0.455161422491073608 1.7472996711730957 0.130161672830581665
-0.256364136934280396 1.05283236503601074 -0.444742381572723389
0.0682103186845779419 1.80472981929779053 0.756732821464538574
-0.530433535575866699 1.67787289619445801 0.312566906213760376
-0.909022510051727295 1.31157493591308594 -0.32259175181388855
1.53092491626739502 2.35184693336486816 -0.974257230758666992
-0.819661080837249756 1.39070796966552734 -0.0399128645658493042
1.06805574893951416 2.71472263336181641 0.842352509498596191
-0.809672296047210693 1.40276753902435303 -0.1521635502576828
1.48441708087921143 2.43745923042297363 0.372548401355743408
0.655344903469085693 2.34531641006469727 0.958810985088348389
-0.838223695755004883 1.38684654235839844 0.433773666620254517
-0.430663824081420898 1.17583739757537842 0.400274991989135742
-0.0858475863933563232 2.08763718605041504 0.0509886778891086578
0.790584206581115723 2.48170161247253418 0.924353182315826416
0.929004132747650146 2.50047135353088379 -0.324129790067672729
1.02127218246459961 2.20854282379150391 -0.9557608962059021
-0.378591477870941162 1.34074258804321289 0.375107228755950928
0.0643788650631904602 1.12473094463348389 -0.506063342094421387
-0.317907005548477173 1.30899524688720703 0.399359822273254395
1.53077447414398193 2.38645601272583008 -0.172560229897499084
-0.121810212731361389 1.14866268634796143 -0.432061523199081421
-0.358300089836120605 1.84508883953094482 0.198640048503875732
-0.751950502395629883 1.47960364818572998 0.369957476854324341
-0.356781661510467529 0.977010548114776611 -0.344877749681472778
-0.849253594875335693 1.37985718250274658 0.434194803237915039
-0.182846084237098694 2.00660538673400879 0.203539058566093445
-0.166721701622009277 1.56223213672637939 0.566158533096313477
-0.661124527454376221 1.55656719207763672 -0.028624335303902626
-0.521005332469940186 1.68526875972747803 -0.000422306533437222242
1.14196515083312988 2.72335052490234375 0.23210906982421875
0.0303623490035533905 1.75315701961517334 0.672082781791687012
0.764072597026824951 1.9653095006942749 -0.538494110107421875
1.44136631488800049 2.46417713165283203 0.536193370819091797
1.2016066312789917 2.38449335098266602 -1.15029287338256836
1.44399559497833252 2.45418024063110352 0.197443544864654541
-0.689832031726837158 1.53216814994812012 0.303654342889785767
-0.587919175624847412 1.37119972705841064 0.402395308017730713
-0.716887533664703369 1.50746512413024902 0.159297123551368713
0.718475282192230225 1.91488122940063477 -0.771119236946105957
-0.0759577751159667969 2.09352755546569824 -0.158466622233390808
1.31806302070617676 2.47617006301879883 -1.12150561809539795
-0.717264831066131592 1.49098598957061768 0.508607625961303711
-0.870156049728393555 1.37628602981567383 0.555452048778533936
1.55319726467132568 2.32746338844299316 -0.886720538139343262
-0.174977436661720276 1.06876981258392334 -0.540779411792755127
1.48753452301025391 2.37805700302124023 -0.952024161815643311
1.28984367847442627 2.58796453475952148 0.190315037965774536
-0.814922094345092773 1.39978671073913574 0.0178264454007148743
0.476493477821350098 2.13798284530639648 0.638360023498535156
1.13131165504455566 2.72076869010925293 0.824025332927703857
-0.889378726482391357 1.33428061008453369 -0.460654467344284058
-0.550575733184814453 1.25290489196777344 -0.57963794469833374
-0.811135292053222656 1.43357300758361816 0.577988684177398682
1.34288763999938965 2.48951458930969238 -1.05893945693969727
1.11246418952941895 2.29138946533203125 -0.753931045532226562
0.415650010108947754 2.09368324279785156 0.728269100189208984
-0.869012653827667236 1.3460540771484375 -0.276931434869766235
1.14167571067810059 2.70903587341308594 0.810500383377075195
-0.127025961875915527 2.01043248176574707 0.162332534790039062
0.110498018562793732 1.31263983249664307 -0.66360938549041748
0.0670466125011444092 1.78159928321838379 0.679544150829315186
0.701500952243804932 1.90459191799163818 -0.606716334819793701
-0.795604884624481201 1.44473123550415039 0.448769807815551758
0.0445996373891830444 1.28106606006622314 -0.353149175643920898
0.748330235481262207 1.94023323059082031 -0.633399307727813721
-0.562834858894348145 1.62376117706298828 -0.234261468052864075
0.110563568770885468 1.31483113765716553 -0.73540949821472168
-0.631725847721099854 1.58471333980560303 -0.158565759658813477
-0.793862640857696533 1.44268262386322021 0.31604340672492981
-0.314879506826400757 1.44118165969848633 0.60655742883682251
0.359111487865447998 2.03167247772216797 0.428495079278945923
-0.320054292678833008 1.88630545139312744 0.220344290137290955
0.674671173095703125 2.3210141658782959 0.445114850997924805
0.29077032208442688 1.97937428951263428 0.443321198225021362
1.21645128726959229 2.61267924308776855 1.08866453170776367
-0.166594013571739197 1.44627416133880615 0.400501757860183716
0.0719903185963630676 1.14221715927124023 -0.516228020191192627
-0.884299635887145996 1.35836207866668701 0.538568973541259766
-0.115538269281387329 1.15655660629272461 -0.396616101264953613
0.180420547723770142 1.87002348899841309 0.232753470540046692
-0.539297580718994141 1.24121761322021484 -0.611143767833709717
-0.294149279594421387 1.89380311965942383 -0.109620809555053711
0.150437191128730774 1.84230804443359375 0.389635801315307617
-0.71548771858215332 1.4226222038269043 -0.475942820310592651
1.16097116470336914 2.41976380348205566 -1.29670274257659912
0.133828327059745789 1.84063053131103516 0.67835766077041626
-0.465357571840286255 1.10176575183868408 -0.371304184198379517
-0.0315798893570899963 1.4420936107635498 0.472140878438949585
-0.209965229034423828 1.04368996620178223 -0.447324305772781372
0.826213538646697998 2.91730690002441406 -0.0554361939430236816
0.877581179141998291 2.56387996673583984 1.01943850517272949
0.138536214828491211 1.3381505012512207 -0.711260318756103516
-0.0957787409424781799 1.63069057464599609 0.572753310203552246
-0.520575225353240967 1.68683087825775146 0.17965322732925415
-0.306704521179199219 1.88031375408172607 -0.137278169393539429
-0.113491609692573547 2.05281233787536621 -0.170737981796264648
-0.821084916591644287 1.3876338005065918 -0.267263263463973999
1.57512450218200684 2.3135068416595459 -1.0362858772277832
0.291613072156906128 1.46947050094604492 -0.746868312358856201
1.42342281341552734 2.48358583450317383 0.223211959004402161
0.0217946972697973251 1.73073089122772217 0.344453811645507812
-0.00738464295864105225 2.1459956169128418 0.0559442341327667236
-0.0375188142061233521 1.54534423351287842 0.398789793252944946
-0.825165450572967529 1.39078795909881592 0.0934653729200363159
1.53618514537811279 2.35344171524047852 -0.322666645050048828
-0.502526938915252686 1.70028591156005859 0.319665670394897461
-0.414232790470123291 1.74827742576599121 -0.303651601076126099
-0.723123013973236084 1.49918627738952637 0.191954165697097778
0.493383973836898804 2.16220378875732422 0.736013710498809814
0.977328836917877197 2.16316771507263184 -1.05567407608032227
0.130962580442428589 1.33774352073669434 -0.455180704593658447
-0.398328125476837158 1.19563901424407959 0.395910531282424927
-0.600237905979156494 1.61195671558380127 -0.0606204085052013397
0.135908216238021851 1.83481943607330322 0.28649333119392395
1.06008040904998779 2.5617213249206543 1.09129202365875244
-0.740191221237182617 1.48380720615386963 0.373644113540649414
-0.380351990461349487 1.82299470901489258 0.254030674695968628
-0.83227616548538208 1.38350009918212891 0.201276153326034546
0.683563828468322754 1.87490487098693848 -0.336261004209518433
0.404528796672821045 2.06889557838439941 0.375063925981521606
-0.837379574775695801 1.37503182888031006 0.136187389492988586
0.81712031364440918 2.50568342208862305 -0.357604563236236572
1.23491263389587402 2.6269538402557373 0.471786737442016602
-0.774095237255096436 1.44744837284088135 0.0288967173546552658
-0.856387615203857422 1.35345911979675293 -0.100007243454456329
-0.22823430597782135 1.02570950984954834 -0.559440553188323975
0.174473926424980164 2.30587172508239746 0.0676425620913505554
1.48010122776031494 2.39560866355895996 -0.26395261287689209
-0.00281362095847725868 1.088889479637146 -0.483080744743347168
-0.634061336517333984 1.57349240779876709 0.34616735577583313
0.993357062339782715 2.59607386589050293 1.07839024066925049
0.942673921585083008 2.26955389976501465 -0.316488474607467651
-0.823029816150665283 1.38603568077087402 -0.203136980533599854
-0.624167919158935547 1.58925211429595947 -0.0355407223105430603
-0.776855051517486572 1.44934821128845215 0.290679216384887695
1.16067564487457275 2.69478440284729004 0.806082963943481445
-0.260669618844985962 0.997494280338287354 -0.543808102607727051
-0.486937969923019409 1.37336516380310059 -0.216468840837478638
-0.775385618209838867 1.45498943328857422 0.264928698539733887
0.825365424156188965 2.46507811546325684 0.215982958674430847
-0.745253443717956543 1.44041919708251953 -0.442472249269485474
-0.229766741394996643 1.02059280872344971 -0.373134762048721313
0.554862141609191895 1.76906394958496094 -0.725623488426208496
0.237120017409324646 1.4556128978729248 -0.329243332147598267
0.456192374229431152 1.68951141834259033 -0.432229846715927124
-0.741799473762512207 1.49041998386383057 0.592217922210693359
1.39788568019866943 2.4487614631652832 -0.902679800987243652
-0.807422637939453125 1.41152393817901611 0.332762986421585083
-0.184743091464042664 1.12033796310424805 -0.361886411905288696
1.40336573123931885 2.48207473754882812 0.439724057912826538
-0.498551219701766968 1.17176949977874756 -0.523682475090026855
-0.064592897891998291 2.10159611701965332 -0.195091381669044495
1.27367866039276123 2.45342350006103516 -0.927627027034759521
-0.753111600875854492 1.46567392349243164 -0.0427508503198623657
0.670927047729492188 2.36965203285217285 0.964435458183288574
0.0526014566421508789 1.8130488395690918 0.21630646288394928
1.55389559268951416 2.38898706436157227 0.0256703495979309082
0.711163699626922607 1.91115927696228027 -0.878782868385314941
0.0715363919734954834 1.53958606719970703 0.421996116638183594
-0.371408194303512573 0.990239739418029785 -0.435049921274185181
-0.701514244079589844 1.52458655834197998 0.274100184440612793
1.14360952377319336 2.71497750282287598 0.8469124436378479
-0.100472219288349152 1.16099774837493896 -0.407307952642440796
0.152831494808197021 2.07757782936096191 -0.138963803648948669
0.205331966280937195 2.31009817123413086 0.128208830952644348
1.29203236103057861 2.42928242683410645 -1.26875424385070801
-0.580385506153106689 1.634124755859375 0.0737525224685668945
0.363573938608169556 2.46840834617614746 -0.0401699729263782501
0.576805353164672852 1.78328216075897217 -0.759635567665100098
1.02671205997467041 2.66951990127563477 0.745678424835205078
1.14715957641601562 2.70759820938110352 0.745766639709472656
1.36845850944519043 2.47557854652404785 -1.03860080242156982
1.37456512451171875 2.47598028182983398 -1.08757615089416504
-0.562749207019805908 1.64595580101013184 -0.174677088856697083
-0.0781162083148956299 1.08730232715606689 -0.456191331148147583
0.879234433174133301 2.94896984100341797 -0.00627797376364469528
-0.399470090866088867 1.0408787727355957 -0.57496565580368042
0.719606935977935791 2.82775235176086426 0.106353260576725006
-0.020825214684009552 1.19159090518951416 -0.434868067502975464
1.18991029262542725 2.37859249114990234 -0.941033780574798584
-0.580199360847473145 1.62554025650024414 -0.163071990013122559
1.29565966129302979 2.59284210205078125 0.2632007896900177
0.461914986371994019 2.16954994201660156 0.930797934532165527
0.698127925395965576 1.89054989814758301 -0.738981366157531738
0.218403741717338562 1.40386044979095459 -0.530350208282470703
-0.660717129707336426 1.4778435230255127 0.355402708053588867
-0.687653124332427979 1.52987098693847656 -0.135130837559700012
1.55123066902160645 2.32715749740600586 -0.515733063220977783
0.447730571031570435 2.10545921325683594 0.252719998359680176
1.53416752815246582 2.42185425758361816 0.681642711162567139
0.0183661486953496933 1.09780347347259521 -0.485002368688583374
-0.829989016056060791 1.390677809715271 0.373960673809051514
-0.341685682535171509 1.8626408576965332 0.359215438365936279
1.24510717391967773 2.6379547119140625 0.980070233345031738
0.153469577431678772 1.87103378772735596 0.76043325662612915
0.949582695960998535 2.93574285507202148 -0.217626273632049561
0.183446317911148071 1.895782470703125 0.73611140251159668
1.34446227550506592 2.47211170196533203 -0.689334511756896973
0.376126229763031006 1.62217140197753906 -0.436599612236022949
-0.114003762602806091 1.37111163139343262 0.436945468187332153
1.58598446846008301 2.30177807807922363 -0.917882204055786133
-0.83920586109161377 1.38472175598144531 0.374971866607666016
-0.803312182426452637 1.440376877784729 0.536414742469787598
0.801803886890411377 2.44901204109191895 0.196406126022338867
0.0176955647766590118 1.74908578395843506 0.727398872375488281
1.03155672550201416 2.54992771148681641 1.09558355808258057
-0.395369559526443481 1.14770674705505371 0.454963147640228271
1.17326545715332031 2.72679328918457031 -0.0234487932175397873
-0.332635283470153809 1.01533162593841553 -0.39643096923828125
0.17895914614200592 1.37020361423492432 -0.59821784496307373
-0.330876201391220093 1.1721343994140625 -0.291297703981399536
0.0593168064951896667 1.51468586921691895 0.462250173091888428
-0.289126157760620117 1.12878537178039551 -0.315688371658325195
0.645536899566650391 2.75912237167358398 0.0211930125951766968
1.53782689571380615 2.35381031036376953 -0.372240364551544189
-0.409460961818695068 1.78349578380584717 -0.149797335267066956
0.564658582210540771 2.66996026039123535 -0.0545874536037445068
0.883993923664093018 2.5133664608001709 0.219951465725898743
-0.0635691210627555847 1.6669764518737793 0.633585155010223389
-0.102334454655647278 1.13304197788238525 -0.594094514846801758
1.59081482887268066 2.33415079116821289 -0.195945143699645996
0.526568293571472168 1.74803471565246582 -0.913900434970855713
1.40400564670562744 2.44768333435058594 -1.18669450283050537
1.24685251712799072 2.63735651969909668 0.874635517597198486
0.59698796272277832 1.79590260982513428 -0.352778077125549316
-0.230169370770454407 1.96983540058135986 0.284339785575866699
-0.353336900472640991 1.31357252597808838 0.391385316848754883
-0.304565638303756714 1.41206109523773193 0.378985166549682617
0.285710722208023071 2.07009720802307129 -0.336595803499221802
0.236601561307907104 1.38607549667358398 -0.394026398658752441
-0.635530233383178711 1.58230912685394287 0.210626959800720215
-0.447883516550064087 1.19204854965209961 0.479222148656845093
-0.240635082125663757 1.01153159141540527 -0.54354393482208252
-0.134278535842895508 1.17363619804382324 -0.320166170597076416
0.294647514820098877 2.40021371841430664 -0.0794820412993431091
-0.594641447067260742 1.6180349588394165 0.242061257362365723
1.60666096210479736 2.37395238876342773 0.32664373517036438
0.863702893257141113 2.9355931282043457 0.0435381978750228882
1.13212776184082031 2.7217557430267334 0.484693288803100586
0.262949168682098389 1.43943846225738525 -0.614731848239898682
-0.166564181447029114 2.00882577896118164 -0.0184607114642858505
-0.299156785011291504 1.90757715702056885 0.18715900182723999
-0.668023347854614258 1.5495452880859375 -0.0665028393268585205
0.834197878837585449 2.49732780456542969 0.784902989864349365
-0.659809291362762451 1.38434064388275146 -0.574583470821380615
0.865601658821105957 2.49153256416320801 1.0713653564453125
-0.622505307197570801 1.59540510177612305 -0.108174145221710205
0.143716827034950256 1.33783984184265137 -0.660614252090454102
0.908079743385314941 2.54661250114440918 0.374322235584259033
0.492343336343765259 2.17705559730529785 0.80817723274230957
-0.761327803134918213 1.47565865516662598 0.597167372703552246
1.50284481048583984 2.34947967529296875 -0.830333530902862549
-0.906424999237060547 1.33386504650115967 -0.694456934928894043
0.707397758960723877 2.4044501781463623 0.978435039520263672
-0.501153171062469482 1.70263814926147461 0.269723415374755859
-0.198533251881599426 1.30745482444763184 0.407688617706298828
-0.799595475196838379 1.4338233470916748 0.168256714940071106
-0.616149961948394775 1.60240209102630615 0.117601856589317322
1.47037398815155029 2.39437365531921387 -0.268322199583053589
0.749834358692169189 2.39190077781677246 0.365514457225799561
-0.443299055099487305 1.75899636745452881 -0.120774433016777039
0.225077569484710693 1.95315253734588623 0.835613071918487549
0.0347881019115447998 1.24518346786499023 -0.651341617107391357
0.791763663291931152 2.89172053337097168 -0.0656959563493728638
1.51900875568389893 2.34597206115722656 -0.519623756408691406
-0.756575942039489746 1.44222629070281982 -0.672159731388092041
1.51649737358093262 2.35043573379516602 -0.812388420104980469
-0.864205658435821533 1.3554532527923584 0.182403311133384705
1.40459954738616943 2.42461395263671875 -0.396250784397125244
-0.831241250038146973 1.37906539440155029 -0.390729337930679321
1.21341538429260254 2.40383219718933105 -1.03143990039825439
0.347250521183013916 2.45279383659362793 0.0617405436933040619
0.256558418273925781 1.97370123863220215 0.826469004154205322
1.51374983787536621 2.39447593688964844 -0.191181004047393799
-0.331413805484771729 1.87462258338928223 0.264334797859191895
0.478623837232589722 1.7102656364440918 -0.493989467620849609
-0.779748260974884033 1.42322742938995361 -0.351342141628265381
-0.297687798738479614 1.12947499752044678 -0.302690178155899048
-0.291026204824447632 1.89679741859436035 -0.109816387295722961
0.59348595142364502 1.80654549598693848 -0.340938091278076172
-0.108249127864837646 1.05205345153808594 -0.459851562976837158
0.476638227701187134 2.54405570030212402 -0.331724256277084351
0.72810816764831543 2.83457756042480469 -0.085510745644569397
-0.757665157318115234 1.46323502063751221 -0.0509410351514816284
0.107777059078216553 1.56677472591400146 0.443552643060684204
-0.44140210747718811 1.2863696813583374 0.388558804988861084
-0.325857818126678467 1.87712419033050537 0.198354616761207581
0.0642422288656234741 1.15863525867462158 -0.471091002225875854
-0.88471686840057373 1.34264612197875977 -0.529352188110351562
1.09278082847595215 2.71682262420654297 0.599220991134643555
-0.0881129428744316101 1.98427760601043701 0.159990385174751282
1.47387492656707764 2.38591718673706055 -1.12434637546539307
1.59369754791259766 2.33954977989196777 -0.169745683670043945
-0.68522876501083374 1.40056157112121582 -0.457754611968994141
0.760939598083496094 1.93579983711242676 -0.340097546577453613
-0.236056938767433167 1.94689834117889404 -0.109416626393795013
-0.0515924207866191864 1.54326105117797852 -0.299635171890258789
-0.821499526500701904 1.40997791290283203 0.492091119289398193
0.717105984687805176 2.35827827453613281 0.373615771532058716
0.0397892706096172333 1.84190964698791504 0.250630766153335571
-0.212406665086746216 1.43449783325195312 -0.310625821352005005
1.4944455623626709 2.47150564193725586 0.956427633762359619
-0.793006539344787598 1.42981255054473877 -0.472307533025741577
-0.465204864740371704 1.66127777099609375 0.358108013868331909
-0.331576794385910034 1.85575807094573975 -0.184689044952392578
-0.606878340244293213 1.60303902626037598 -0.209506645798683167
-0.146648988127708435 1.09167516231536865 -0.524421393871307373
-0.554336667060852051 1.58135318756103516 0.361926525831222534
-0.808126926422119141 1.41001427173614502 0.360876351594924927
-0.120360583066940308 1.16072773933410645 -0.393486857414245605
-0.8730660080909729 1.34267878532409668 -0.114370092749595642
-0.373735338449478149 1.2014235258102417 -0.305332392454147339
1.6191103458404541 2.3761754035949707 0.406090080738067627
0.0892126411199569702 1.79146158695220947 0.299887269735336304
-0.630539000034332275 1.58531594276428223 0.00345846707932651043
-0.399246513843536377 1.03156459331512451 -0.392267972230911255
1.07091057300567627 2.63318133354187012 1.07918739318847656
1.26276326179504395 2.60265803337097168 0.447944551706314087
1.2411876916885376 2.62529587745666504 -0.162192314863204956
1.07759273052215576 2.81709504127502441 0.0931511297821998596
-0.0759110525250434875 2.08869767189025879 -0.173968270421028137
0.924315392971038818 2.10053491592407227 -0.764374673366546631
0.561668753623962402 2.20891213417053223 0.145131334662437439
-0.262292593717575073 1.01511251926422119 -0.400770634412765503
0.265048086643218994 1.42391026020050049 -0.454745560884475708
-0.807529091835021973 1.40018057823181152 -0.426868468523025513
-0.705600857734680176 1.49113631248474121 0.530233502388000488
1.49896395206451416 2.42767691612243652 0.113158188760280609
-0.112193599343299866 1.12457287311553955 -0.565000176429748535
-0.79964292049407959 1.40973174571990967 -0.134214669466018677
0.367957323789596558 2.03368473052978516 0.164938658475875854
1.37186288833618164 2.5153040885925293 0.179541394114494324
1.56769871711730957 2.30228424072265625 -1.19084906578063965
0.895017743110656738 2.93963074684143066 -0.200836136937141418
-0.614908576011657715 1.41340780258178711 0.555970966815948486
0.580668747425079346 2.23694419860839844 0.785377562046051025
-0.0860123857855796814 1.14791762828826904 -0.6157187819480896
1.34754669666290283 2.54719042778015137 0.120122030377388
1.38796126842498779 2.50506711006164551 0.457852333784103394
1.06400275230407715 2.62444329261779785 -0.290702581405639648
0.220775723457336426 1.9159538745880127 0.625669419765472412
-0.894170641899108887 1.32611668109893799 -0.275146186351776123
0.137089371681213379 2.2633965015411377 0.0410977043211460114
-0.827065765857696533 1.38377416133880615 0.206415161490440369
1.58137738704681396 2.30636310577392578 -0.511398851871490479
0.204767018556594849 1.40025317668914795 -0.786531209945678711
1.59436440467834473 2.42589020729064941 1.02108383178710938
1.52711629867553711 2.34790730476379395 -0.76579439640045166
1.60748898983001709 2.36725950241088867 0.294925957918167114
1.27056241035461426 2.61698627471923828 -0.0925455391407012939
-0.761814653873443604 1.44566035270690918 -0.777077198028564453
1.3925020694732666 2.51912117004394531 0.797539234161376953
-0.741885900497436523 1.48278927803039551 -0.116414107382297516
-0.832682907581329346 1.38047933578491211 -0.477151334285736084
0.0909612253308296204 1.6338653564453125 0.405856162309646606
0.855142772197723389 2.03301215171813965 -0.715706527233123779
0.48246416449546814 1.72217094898223877 -0.948178529739379883
-0.0999024659395217896 1.13334882259368896 -0.569491922855377197
0.531240284442901611 1.76187539100646973 -0.973790347576141357
0.722924590110778809 2.3769071102142334 0.799358129501342773
-0.353220373392105103 1.75900363922119141 -0.309284985065460205
1.55537605285644531 2.38451623916625977 0.186445668339729309
1.56695568561553955 2.36770153045654297 0.0208220481872558594
0.602991163730621338 2.24295592308044434 0.276784121990203857
-0.364365369081497192 1.83611786365509033 0.142934471368789673
-0.423970937728881836 1.16828310489654541 0.46536022424697876
0.234391942620277405 1.35669231414794922 -0.456967741250991821
-0.20182490348815918 1.0530475378036499 -0.459700316190719604
0.591600358486175537 2.26476860046386719 0.856637179851531982
-0.528689563274383545 1.68261909484863281 0.0439408086240291595
0.298273950815200806 1.98311531543731689 0.683198094367980957
0.729536235332489014 1.92881882190704346 -0.659679591655731201
-0.646483242511749268 1.5691523551940918 -0.0556578710675239563
-0.506308376789093018 1.38273942470550537 -0.228444382548332214
-0.271358072757720947 1.2345433235168457 0.430354446172714233
-0.834834516048431396 1.39058482646942139 0.447568267583847046
-0.373177170753479004 1.35633540153503418 0.367006748914718628
-0.572716116905212402 1.62640631198883057 -0.222149655222892761
1.36412656307220459 2.4674675464630127 -0.626061677932739258
-0.0901175066828727722 2.07925176620483398 -0.0313808023929595947
-0.763076305389404297 1.47176957130432129 0.486344277858734131
-0.604977190494537354 1.60666978359222412 -0.0847074240446090698
-0.499551475048065186 1.16993880271911621 -0.426259428262710571
-0.110104233026504517 1.59040260314941406 0.361243128776550293
1.50906109809875488 2.42725729942321777 0.0675569847226142883
-0.854891717433929443 1.37408208847045898 0.45743638277053833
-0.0647567138075828552 1.40860593318939209 0.463946282863616943
1.17778694629669189 2.69663357734680176 0.143859267234802246
-0.417598903179168701 1.1758352518081665 0.400194048881530762
0.21617986261844635 1.9071962833404541 0.329094767570495605
1.46950197219848633 2.45333480834960938 0.614707052707672119
-0.117646552622318268 1.15015554428100586 -0.441668540239334106
-0.321661293506622314 1.2240447998046875 0.402562260627746582
0.429417222738265991 2.52431511878967285 -0.194308176636695862
-0.344557732343673706 1.84323000907897949 -0.0435718037188053131
1.36319434642791748 2.5222785472869873 0.725168287754058838
-0.188416600227355957 1.55982208251953125 0.652748584747314453
1.45472478866577148 2.46074438095092773 -0.0746843814849853516
-0.618232965469360352 1.59746670722961426 -0.144758954644203186
0.851142764091491699 2.52072525024414062 0.810550153255462646
0.10522586852312088 2.23602533340454102 -0.153435543179512024
0.0125493742525577545 1.88200211524963379 0.270226955413818359
0.334486156702041626 1.57431173324584961 -0.338370561599731445
0.174723833799362183 1.87814736366271973 0.668135762214660645
-0.260258138179779053 1.45747852325439453 0.385506272315979004
-0.185271188616752625 1.98044085502624512 -0.23210279643535614
0.878027677536010742 2.49126172065734863 0.444621950387954712
0.573036730289459229 2.20824575424194336 0.264418870210647583
-0.379352927207946777 1.43180692195892334 -0.21003405749797821
-0.0983455479145050049 2.03575372695922852 0.129948481917381287
1.2435685396194458 2.62787604331970215 0.809330105781555176
0.795928478240966797 2.8833467960357666 -0.185546770691871643
-0.923364162445068359 1.33027482032775879 -0.724266350269317627
1.02811527252197266 2.66377854347229004 0.147930115461349487
-0.465695708990097046 1.73811078071594238 -0.0238132309168577194
-0.693668246269226074 1.52879154682159424 0.127132818102836609
-0.540201723575592041 1.66621983051300049 -0.132636964321136475
0.390732765197753906 2.49464964866638184 0.076613210141658783
-0.22219441831111908 1.11758017539978027 -0.319460570812225342
1.07040238380432129 2.25162696838378906 -1.14384698867797852
-0.45446053147315979 1.54403972625732422 0.375538676977157593
-0.503172576427459717 1.18522799015045166 -0.571900844573974609
1.54088699817657471 2.3493194580078125 -0.268359601497650146
-0.620840907096862793 1.59242403507232666 -0.201926052570343018
1.38433563709259033 2.45922446250915527 -1.28976321220397949
1.57432770729064941 2.37384510040283203 0.0610044039785861969
